-0.3262,0.1881,0.1229,186,161,131
-0.3169,0.1946,0.1240,117,98,84
0.0627,0.1964,0.1231,83,60,34
0.0853,0.1940,0.1275,120,77,36
-0.3161,0.2060,0.1250,103,84,69
0.0579,0.2078,0.1201,84,69,48
-0.3157,0.2176,0.1275,114,99,87
0.0585,0.2143,0.1264,84,67,47
0.0584,0.2252,0.1242,48,35,24
-0.3174,0.2359,0.1245,66,61,56
0.0598,0.2375,0.1265,2,0,0
-0.3181,0.2434,0.1228,57,54,49
0.0589,0.2498,0.1206,0,0,0
0.0600,0.2446,0.1260,0,0,0
-0.3216,0.2561,0.1255,39,39,39
0.0606,0.2561,0.1260,0,0,0
-0.3229,0.2674,0.1208,31,32,36
0.0620,0.2632,0.1224,0,0,0
-0.3221,0.2701,0.1226,29,33,36
-0.3185,0.2750,0.1252,23,28,31
0.0641,0.2780,0.1239,1,0,0
-0.3132,0.2814,0.1218,22,27,38
-0.3086,0.2862,0.1250,55,72,87
0.0590,0.2858,0.1243,0,0,0
0.0605,0.2818,0.1239,2,0,1
-0.3003,0.2914,0.1256,86,103,119
-0.2956,0.2933,0.1273,77,93,109
-0.2830,0.2964,0.1280,68,85,101
-0.2763,0.2966,0.1295,80,96,111
-0.2643,0.2970,0.1294,78,95,110
-0.2550,0.2970,0.1242,78,94,110
-0.2452,0.2964,0.1218,78,94,109
-0.2332,0.2955,0.1269,80,93,108
-0.2195,0.2954,0.1251,80,97,107
-0.2056,0.2947,0.1291,81,95,106
-0.1976,0.2942,0.1222,81,95,108
-0.1852,0.2940,0.1250,83,95,106
-0.1704,0.2938,0.1214,82,94,106
-0.1591,0.2930,0.1256,83,95,107
-0.1417,0.2930,0.1286,81,95,104
-0.1344,0.2931,0.1260,83,92,106
-0.1265,0.2935,0.1255,93,92,98
-0.1143,0.2937,0.1231,255,79,92
-0.1042,0.2938,0.1256,196,87,100
-0.0943,0.2939,0.1271,162,88,98
-0.0847,0.2933,0.1239,83,94,106
-0.0726,0.2932,0.1236,76,88,100
-0.0687,0.2935,0.1292,75,85,97
-0.0549,0.2930,0.1242,78,90,102
-0.0496,0.2931,0.1287,70,82,94
-0.0249,0.2940,0.1271,84,96,106
-0.0133,0.2953,0.1219,83,97,110
-0.0053,0.2963,0.1257,77,89,102
0.0562,0.2972,0.1280,10,6,5
0.0058,0.3013,0.1253,80,91,103
0.0155,0.3045,0.1261,79,91,104
0.0238,0.3067,0.1246,76,86,98
0.0317,0.3078,0.1264,74,86,98
0.0431,0.3059,0.1250,78,89,103
-0.3411,0.1870,0.1392,244,215,175
-0.3357,0.1868,0.1360,243,213,170
-0.3231,0.1880,0.1389,240,208,161
-0.3177,0.1916,0.1335,132,115,97
0.0652,0.1958,0.1348,74,52,28
0.0745,0.1938,0.1377,110,68,33
0.0847,0.1939,0.1347,111,70,34
-0.3146,0.2024,0.1349,135,120,100
0.0596,0.2081,0.1381,88,71,45
-0.3140,0.2132,0.1359,139,124,109
0.0596,0.2124,0.1384,84,64,40
-0.3146,0.2204,0.1345,100,86,73
0.0591,0.2230,0.1327,47,33,19
0.0606,0.2299,0.1389,7,1,1
-0.3164,0.2347,0.1338,74,67,62
0.0613,0.2392,0.1342,3,0,0
-0.3177,0.2446,0.1342,54,50,49
-0.3188,0.2509,0.1334,41,39,40
0.0631,0.2554,0.1371,3,0,0
-0.3215,0.2673,0.1338,34,33,37
0.0659,0.2657,0.1339,0,0,0
-0.3202,0.2719,0.1341,26,29,32
-0.3134,0.2796,0.1353,30,34,43
-0.3104,0.2826,0.1356,22,31,38
-0.3077,0.2852,0.1353,120,136,159
0.0621,0.2828,0.1346,0,0,0
-0.3005,0.2905,0.1330,85,100,119
-0.2941,0.2941,0.1365,76,91,106
-0.2862,0.2956,0.1306,70,87,103
-0.2768,0.2964,0.1397,81,94,110
-0.2644,0.2966,0.1368,81,97,112
-0.2533,0.2966,0.1356,83,95,109
-0.2410,0.2954,0.1388,78,91,107
-0.2371,0.2954,0.1343,81,94,109
-0.2212,0.2950,0.1312,82,94,106
-0.2174,0.2951,0.1343,81,95,106
-0.2029,0.2943,0.1362,83,97,108
-0.1923,0.2940,0.1346,85,97,109
-0.1832,0.2940,0.1349,84,96,108
-0.1754,0.2940,0.1302,83,95,107
-0.1677,0.2936,0.1327,84,96,108
-0.1517,0.2930,0.1360,81,94,103
-0.1458,0.2930,0.1315,82,96,105
-0.1356,0.2930,0.1362,79,92,101
-0.1162,0.2930,0.1382,255,84,90
-0.1066,0.2930,0.1360,255,83,95
-0.0959,0.2932,0.1356,253,83,93
-0.0748,0.2940,0.1346,75,88,98
-0.0637,0.2938,0.1349,69,83,94
-0.0557,0.2935,0.1350,69,83,92
-0.0447,0.2938,0.1358,76,89,98
-0.0330,0.2940,0.1320,84,94,104
-0.0269,0.2940,0.1341,82,94,104
-0.0159,0.2949,0.1306,76,89,98
-0.0035,0.2959,0.1388,73,86,95
0.0025,0.2992,0.1341,74,86,98
0.0616,0.2927,0.1349,4,2,0
0.0081,0.3012,0.1394,71,81,91
0.0157,0.3040,0.1339,76,84,95
0.0224,0.3058,0.1354,73,81,92
0.0394,0.3080,0.1341,71,81,93
0.0448,0.3057,0.1337,75,85,97
-0.3359,0.1869,0.1437,244,213,172
-0.3155,0.1918,0.1472,192,176,151
0.0807,0.1940,0.1475,111,69,31
-0.3131,0.2037,0.1439,178,165,147
0.0621,0.2026,0.1464,85,64,41
-0.3129,0.2161,0.1423,155,140,125
0.0603,0.2143,0.1454,68,52,30
-0.3145,0.2248,0.1410,116,101,94
0.0611,0.2268,0.1448,27,18,10
-0.3152,0.2339,0.1430,83,74,69
-0.3164,0.2456,0.1449,49,47,46
0.0633,0.2461,0.1430,6,0,0
-0.3205,0.2578,0.1428,40,38,43
0.0643,0.2588,0.1448,1,1,1
-0.3210,0.2627,0.1449,33,34,38
-0.3192,0.2692,0.1464,30,31,36
0.0661,0.2640,0.1433,0,0,0
-0.3164,0.2746,0.1454,25,29,36
0.0708,0.2717,0.1432,0,0,0
-0.3063,0.2853,0.1454,54,67,79
0.0640,0.2847,0.1462,0,0,0
-0.2942,0.2933,0.1461,79,94,108
-0.2874,0.2954,0.1411,78,97,111
-0.2723,0.2967,0.1452,84,97,113
-0.2645,0.2966,0.1491,81,95,108
-0.2557,0.2960,0.1440,78,94,107
-0.2403,0.2951,0.1495,81,93,105
-0.2368,0.2951,0.1453,80,94,107
-0.2258,0.2950,0.1442,80,94,105
-0.2145,0.2950,0.1470,80,94,105
-0.2024,0.2941,0.1467,83,96,107
-0.1994,0.2940,0.1486,85,97,109
-0.1655,0.2933,0.1408,83,96,105
-0.1591,0.2934,0.1450,89,99,109
-0.1439,0.2931,0.1453,82,93,102
-0.1338,0.2930,0.1472,167,83,96
-0.1225,0.2930,0.1434,198,83,92
-0.1110,0.2930,0.1440,255,83,93
-0.1054,0.2930,0.1448,255,85,94
-0.0933,0.2930,0.1479,204,96,106
-0.0869,0.2934,0.1405,67,85,94
-0.0736,0.2940,0.1439,67,84,92
-0.0648,0.2940,0.1443,69,84,93
-0.0520,0.2940,0.1474,66,80,89
-0.0346,0.2940,0.1460,74,87,96
-0.0237,0.2940,0.1443,81,92,102
-0.0144,0.2949,0.1436,81,92,102
-0.0016,0.2965,0.1473,72,81,92
0.0555,0.2997,0.1457,20,17,18
0.0632,0.2915,0.1491,0,0,0
0.0173,0.3036,0.1474,72,80,91
0.0230,0.3054,0.1475,72,80,91
0.0330,0.3080,0.1445,74,82,93
0.0460,0.3062,0.1425,79,89,100
0.0520,0.3025,0.1433,75,82,92
-0.3345,0.1871,0.1548,243,214,172
-0.3226,0.1871,0.1522,242,208,168
-0.3128,0.1944,0.1539,180,160,136
0.0676,0.1955,0.1554,82,58,32
0.0766,0.1942,0.1554,93,58,21
0.0836,0.1942,0.1519,115,72,37
-0.3112,0.2018,0.1563,175,162,143
0.0625,0.2053,0.1574,86,68,42
-0.3119,0.2164,0.1528,119,107,99
0.0618,0.2144,0.1556,78,60,38
-0.3122,0.2299,0.1557,80,69,65
0.0627,0.2257,0.1581,45,33,21
-0.3130,0.2315,0.1519,75,68,62
0.0626,0.2344,0.1530,4,0,0
-0.3154,0.2479,0.1554,43,43,42
-0.3164,0.2522,0.1579,40,40,38
0.0652,0.2536,0.1530,1,0,0
-0.3186,0.2686,0.1544,29,32,37
0.0669,0.2622,0.1534,0,0,0
0.0711,0.2675,0.1591,0,0,0
-0.3143,0.2746,0.1587,26,30,38
0.0692,0.2781,0.1560,0,0,0
0.0701,0.2759,0.1506,0,0,0
-0.3057,0.2850,0.1531,67,77,86
0.0649,0.2835,0.1564,0,0,0
-0.2941,0.2931,0.1542,79,92,105
-0.2887,0.2958,0.1572,77,91,104
-0.2756,0.2963,0.1546,74,86,98
-0.2647,0.2967,0.1569,73,87,98
-0.2543,0.2958,0.1566,75,87,101
-0.2450,0.2952,0.1524,73,86,99
-0.2252,0.2950,0.1574,80,93,104
-0.2159,0.2950,0.1566,84,98,108
-0.2058,0.2945,0.1548,83,97,108
-0.1950,0.2940,0.1555,85,98,107
-0.1835,0.2940,0.1576,84,98,106
-0.1752,0.2939,0.1571,81,95,108
-0.1668,0.2935,0.1500,86,96,106
-0.1516,0.2934,0.1502,80,93,101
-0.1343,0.2932,0.1566,111,86,92
-0.1270,0.2930,0.1582,180,74,76
-0.1113,0.2930,0.1582,255,80,91
-0.1020,0.2930,0.1521,255,84,93
-0.0990,0.2930,0.1591,255,86,95
-0.0883,0.2931,0.1536,63,85,82
-0.0750,0.2940,0.1571,60,76,84
-0.0671,0.2940,0.1569,64,78,88
-0.0567,0.2940,0.1583,63,77,86
-0.0489,0.2940,0.1537,70,82,94
-0.0339,0.2940,0.1569,80,91,101
-0.0115,0.2950,0.1533,73,83,93
-0.0057,0.2960,0.1561,76,86,97
0.0620,0.2935,0.1555,0,0,0
0.0083,0.3001,0.1543,77,85,96
0.0120,0.3014,0.1532,74,82,93
0.0233,0.3050,0.1577,72,80,92
0.0396,0.3077,0.1549,73,82,91
0.0439,0.3068,0.1569,73,82,91
0.0536,0.3015,0.1537,86,91,103
-0.3413,0.1869,0.1622,245,218,173
-0.3388,0.1867,0.1604,237,212,165
-0.3254,0.1865,0.1608,243,211,166
-0.3167,0.1884,0.1642,150,121,87
-0.3106,0.1928,0.1641,200,181,159
-0.3098,0.1965,0.1640,196,179,159
0.0690,0.1943,0.1653,80,53,27
0.0798,0.1940,0.1644,94,61,30
0.0835,0.1942,0.1650,111,70,31
-0.3095,0.2048,0.1658,182,169,150
0.0644,0.2040,0.1660,80,60,37
-0.3105,0.2102,0.1601,159,146,129
-0.3096,0.2160,0.1653,168,158,141
0.0637,0.2139,0.1697,75,54,35
-0.3108,0.2251,0.1621,92,81,72
-0.3100,0.2240,0.1671,95,81,70
0.0637,0.2250,0.1650,60,45,31
-0.3124,0.2345,0.1623,68,60,56
0.0643,0.2354,0.1675,56,36,25
-0.3146,0.2484,0.1651,42,40,41
0.0645,0.2425,0.1625,3,0,0
-0.3153,0.2543,0.1691,37,39,38
-0.3175,0.2613,0.1666,37,36,41
0.0683,0.2617,0.1651,0,0,0
0.0721,0.2686,0.1637,0,0,0
-0.3119,0.2759,0.1668,28,29,37
0.0728,0.2751,0.1675,0,0,0
-0.3037,0.2848,0.1653,83,96,112
0.0674,0.2828,0.1700,0,0,0
-0.2968,0.2902,0.1673,80,95,108
-0.2866,0.2952,0.1648,78,91,105
-0.2754,0.2960,0.1648,75,90,101
-0.2648,0.2961,0.1655,76,88,100
-0.2426,0.2951,0.1651,74,86,98
-0.2323,0.2950,0.1653,77,87,98
-0.2197,0.2950,0.1692,85,99,110
-0.2076,0.2948,0.1677,85,99,109
-0.1995,0.2940,0.1623,86,98,110
-0.1876,0.2940,0.1657,95,107,119
-0.1766,0.2940,0.1649,90,101,111
-0.1558,0.2940,0.1681,92,103,109
-0.1493,0.2940,0.1640,98,98,106
-0.1163,0.2930,0.1609,255,80,85
-0.1080,0.2937,0.1692,246,81,88
-0.0973,0.2931,0.1647,179,83,92
-0.0846,0.2937,0.1647,55,75,82
-0.0737,0.2940,0.1651,60,78,85
-0.0622,0.2940,0.1661,66,79,87
-0.0439,0.2940,0.1625,75,88,97
-0.0345,0.2940,0.1659,83,94,106
-0.0256,0.2940,0.1605,86,96,106
-0.0181,0.2945,0.1663,80,90,102
-0.0096,0.2950,0.1637,80,90,102
0.0016,0.2977,0.1675,81,91,103
0.0575,0.2985,0.1648,51,53,58
0.0629,0.2936,0.1658,0,0,0
0.0090,0.3004,0.1630,72,82,93
0.0181,0.3031,0.1669,76,84,97
0.0256,0.3053,0.1644,70,78,89
0.0381,0.3078,0.1669,71,80,89
0.0479,0.3062,0.1635,79,86,96
-0.3415,0.1868,0.1767,241,214,170
-0.3361,0.1864,0.1726,242,214,170
-0.3254,0.1854,0.1724,242,209,165
-0.3149,0.1883,0.1740,178,148,110
-0.3085,0.1938,0.1737,184,168,145
0.0689,0.1982,0.1768,82,60,36
0.0750,0.1943,0.1732,91,61,30
0.0847,0.1940,0.1744,114,71,34
-0.3073,0.2044,0.1788,186,173,152
0.0651,0.2053,0.1743,79,58,39
-0.3085,0.2183,0.1718,89,77,65
-0.3089,0.2270,0.1742,85,74,64
0.0654,0.2227,0.1799,83,62,43
-0.3114,0.2366,0.1737,68,62,54
0.0655,0.2321,0.1769,9,0,1
-0.3126,0.2429,0.1737,48,44,43
0.0665,0.2439,0.1757,2,0,0
-0.3150,0.2574,0.1767,36,37,41
0.0674,0.2535,0.1750,0,0,0
-0.3157,0.2643,0.1762,32,33,38
0.0694,0.2620,0.1796,0,0,0
0.0713,0.2643,0.1772,0,0,0
-0.3139,0.2719,0.1775,27,30,37
-0.3078,0.2788,0.1750,32,38,45
0.0727,0.2787,0.1780,0,0,0
-0.3045,0.2825,0.1730,35,41,51
-0.3000,0.2863,0.1767,78,90,104
0.0669,0.2866,0.1739,0,0,0
0.0705,0.2814,0.1753,0,0,0
-0.2927,0.2915,0.1763,79,94,107
-0.2842,0.2957,0.1753,77,92,103
-0.2789,0.2960,0.1786,80,92,106
-0.2646,0.2960,0.1741,84,98,112
-0.2556,0.2960,0.1735,81,94,106
-0.2465,0.2955,0.1755,77,88,99
-0.2364,0.2950,0.1778,84,94,104
-0.2291,0.2950,0.1717,87,100,109
-0.2175,0.2950,0.1721,83,97,106
-0.2049,0.2947,0.1785,88,102,111
-0.1863,0.2940,0.1761,91,102,113
-0.1757,0.2940,0.1757,92,102,111
-0.1680,0.2940,0.1762,96,104,115
-0.1547,0.2940,0.1776,117,101,108
-0.1440,0.2940,0.1746,162,89,98
-0.1330,0.2940,0.1747,96,106,113
-0.1252,0.2936,0.1723,208,79,86
-0.1084,0.2939,0.1724,235,77,92
-0.0954,0.2933,0.1736,217,85,100
-0.0845,0.2940,0.1733,55,79,84
-0.0770,0.2940,0.1780,59,78,85
-0.0521,0.2940,0.1763,80,92,101
-0.0448,0.2940,0.1727,84,94,103
-0.0375,0.2940,0.1748,88,98,110
-0.0247,0.2945,0.1746,90,100,112
0.0045,0.2984,0.1717,73,85,97
0.0597,0.2972,0.1753,37,39,44
0.0607,0.2967,0.1782,25,20,17
0.0150,0.3015,0.1786,75,84,98
0.0264,0.3048,0.1774,74,82,93
0.0328,0.3069,0.1719,68,77,86
0.0481,0.3061,0.1747,76,85,95
0.0520,0.3040,0.1703,81,90,99
-0.3414,0.1854,0.1840,240,212,168
-0.3356,0.1862,0.1864,242,215,172
-0.3225,0.1852,0.1852,239,208,162
-0.3137,0.1880,0.1863,176,149,124
-0.3076,0.1943,0.1818,116,100,81
0.0733,0.1945,0.1848,79,48,17
0.0849,0.1941,0.1835,114,70,32
-0.3059,0.2061,0.1857,134,122,108
0.0677,0.2020,0.1800,84,62,39
-0.3065,0.2170,0.1830,116,103,92
0.0660,0.2175,0.1861,70,48,28
-0.3072,0.2276,0.1843,80,71,61
0.0655,0.2254,0.1810,86,64,40
-0.3102,0.2396,0.1853,67,59,56
-0.3083,0.2328,0.1861,72,63,54
0.0665,0.2353,0.1838,6,0,0
-0.3110,0.2427,0.1828,48,43,47
0.0677,0.2471,0.1847,4,0,0
-0.3139,0.2570,0.1855,35,35,40
0.0734,0.2660,0.1867,0,0,0
-0.3115,0.2728,0.1898,27,32,38
-0.3083,0.2769,0.1840,27,30,37
0.0765,0.2729,0.1838,0,0,0
-0.3029,0.2814,0.1886,33,37,46
-0.2979,0.2869,0.1858,80,94,108
0.0690,0.2839,0.1878,0,0,0
0.0710,0.2816,0.1854,0,0,0
-0.2937,0.2904,0.1869,78,92,105
-0.2853,0.2950,0.1856,78,91,104
-0.2757,0.2960,0.1843,78,90,104
-0.2670,0.2960,0.1834,80,92,105
-0.2545,0.2960,0.1856,84,94,104
-0.2481,0.2960,0.1868,78,88,97
-0.2355,0.2956,0.1868,86,96,106
-0.2272,0.2950,0.1815,85,95,105
-0.2161,0.2950,0.1842,94,104,114
-0.2042,0.2948,0.1895,88,101,110
-0.1928,0.2940,0.1815,91,103,115
-0.1851,0.2940,0.1881,97,106,114
-0.1714,0.2940,0.1850,150,92,101
-0.1655,0.2940,0.1829,97,106,115
-0.1589,0.2940,0.1883,103,107,116
-0.1476,0.2940,0.1854,172,86,92
-0.1354,0.2940,0.1848,143,97,107
-0.1228,0.2940,0.1841,209,86,88
-0.1160,0.2940,0.1850,225,80,89
-0.0992,0.2940,0.1850,129,101,116
-0.0885,0.2940,0.1842,110,97,106
-0.0768,0.2940,0.1851,84,92,100
-0.0667,0.2940,0.1858,78,89,97
-0.0534,0.2940,0.1869,86,96,105
-0.0464,0.2940,0.1825,90,100,109
-0.0264,0.2949,0.1879,84,94,106
-0.0066,0.2959,0.1858,88,98,110
0.0010,0.2973,0.1843,84,92,105
0.0572,0.2997,0.1820,69,65,62
0.0641,0.2948,0.1864,3,0,0
0.0151,0.3014,0.1831,79,89,101
0.0267,0.3048,0.1836,75,83,95
0.0338,0.3067,0.1812,73,82,91
0.0496,0.3055,0.1868,70,78,89
0.0517,0.3043,0.1857,71,78,88
-0.3414,0.1834,0.1936,240,211,170
-0.3359,0.1864,0.1962,239,211,168
-0.3146,0.1868,0.1961,201,176,142
-0.3057,0.1960,0.1915,140,126,112
0.0737,0.1951,0.1941,71,44,13
0.0848,0.1951,0.1950,96,59,28
0.0682,0.2047,0.1935,81,58,34
-0.3046,0.2125,0.1928,127,115,101
-0.3056,0.2255,0.1965,77,69,59
0.0679,0.2283,0.1963,42,24,10
-0.3062,0.2304,0.1986,75,69,57
0.0682,0.2362,0.1938,7,1,1
-0.3101,0.2488,0.1952,56,51,47
-0.3096,0.2426,0.1916,48,44,41
0.0693,0.2427,0.1969,0,0,0
0.0695,0.2537,0.1928,1,0,0
0.0701,0.2508,0.1977,0,0,0
-0.3138,0.2639,0.1932,33,33,36
0.0769,0.2699,0.1918,0,0,0
-0.3055,0.2776,0.1954,34,38,44
0.0769,0.2758,0.1947,0,0,0
-0.3002,0.2827,0.1960,56,61,67
-0.2974,0.2860,0.1951,79,91,105
0.0690,0.2869,0.1947,0,0,0
0.0725,0.2818,0.1970,0,0,0
-0.2905,0.2918,0.1931,79,91,105
-0.2854,0.2945,0.1939,78,91,101
-0.2734,0.2960,0.1972,78,88,97
-0.2636,0.2960,0.1968,87,95,106
-0.2571,0.2960,0.1943,85,95,106
-0.2443,0.2960,0.1953,80,91,97
-0.2252,0.2950,0.1972,93,103,113
-0.2171,0.2950,0.1963,97,107,117
-0.2055,0.2950,0.1946,91,99,108
-0.1954,0.2947,0.1951,89,99,107
-0.1859,0.2944,0.1969,99,105,113
-0.1619,0.2945,0.1988,106,110,119
-0.1320,0.2940,0.1925,110,104,118
-0.1255,0.2940,0.1970,196,90,97
-0.1140,0.2940,0.1950,217,84,92
-0.1007,0.2940,0.1985,219,82,90
-0.0941,0.2940,0.1936,159,94,100
-0.0852,0.2940,0.1950,105,103,111
-0.0728,0.2940,0.1965,97,99,109
-0.0655,0.2940,0.1975,91,97,105
-0.0595,0.2940,0.1964,91,97,108
-0.0419,0.2944,0.1979,89,98,108
-0.0306,0.2948,0.1924,88,98,110
0.0039,0.2981,0.1993,86,96,108
0.0642,0.2957,0.1966,33,25,23
0.0175,0.3020,0.1959,80,91,104
0.0288,0.3050,0.1994,82,96,109
0.0386,0.3076,0.1914,67,77,90
0.0455,0.3067,0.1948,58,68,80
0.0562,0.3016,0.1953,76,67,62
-0.3411,0.1828,0.2044,240,208,168
-0.3367,0.1859,0.2021,238,211,169
-0.3162,0.1854,0.2066,210,182,143
-0.3039,0.1957,0.2014,129,113,100
0.0768,0.1956,0.2058,86,55,25
0.0848,0.1958,0.2045,103,65,30
-0.3027,0.2035,0.2048,130,118,104
0.0692,0.2072,0.2099,83,63,38
-0.3035,0.2167,0.2025,120,109,97
0.0677,0.2144,0.2035,85,60,38
-0.3043,0.2239,0.2050,84,75,64
0.0689,0.2271,0.2030,42,30,19
0.0697,0.2367,0.2046,3,1,0
-0.3077,0.2414,0.2052,51,47,42
0.0702,0.2434,0.2054,1,0,0
-0.3112,0.2557,0.2038,41,38,39
-0.3097,0.2537,0.2095,38,34,33
0.0709,0.2559,0.2042,2,1,0
-0.3117,0.2651,0.2036,31,30,35
0.0763,0.2667,0.2043,0,0,0
-0.3104,0.2708,0.2024,27,28,33
-0.3054,0.2760,0.2054,30,33,38
0.0780,0.2772,0.2079,0,0,0
-0.2949,0.2869,0.2044,76,88,95
0.0729,0.2822,0.2031,0,0,0
-0.2849,0.2939,0.2036,81,91,101
-0.2758,0.2961,0.2024,80,88,98
-0.2624,0.2962,0.2087,88,98,107
-0.2554,0.2960,0.2062,85,94,103
-0.2430,0.2960,0.2057,88,99,105
-0.2339,0.2958,0.2029,93,103,112
-0.2269,0.2953,0.2060,92,102,111
-0.2151,0.2950,0.2054,101,110,119
-0.2041,0.2950,0.2030,97,104,112
-0.1870,0.2950,0.2074,99,106,114
-0.1760,0.2949,0.2065,103,110,120
-0.1652,0.2949,0.2053,108,113,121
-0.1511,0.2942,0.2017,106,113,121
-0.1484,0.2941,0.2036,111,115,124
-0.1365,0.2940,0.2036,213,89,97
-0.1155,0.2940,0.2030,219,85,95
-0.1053,0.2940,0.2053,185,99,108
-0.0972,0.2940,0.2038,219,85,94
-0.0858,0.2940,0.2035,159,93,104
-0.0763,0.2940,0.2055,103,106,114
-0.0656,0.2940,0.2084,101,105,116
-0.0540,0.2940,0.2039,93,100,110
-0.0441,0.2942,0.2069,93,101,112
-0.0262,0.2950,0.2017,91,101,113
-0.0184,0.2951,0.2082,93,100,111
-0.0071,0.2960,0.2029,90,99,114
0.0639,0.2957,0.2041,37,30,29
0.0117,0.3003,0.2048,90,102,116
0.0225,0.3035,0.2060,91,102,115
0.0311,0.3052,0.2008,79,93,106
0.0498,0.3055,0.2001,28,41,58
0.0562,0.3029,0.2088,78,74,71
-0.3405,0.1810,0.2137,238,211,168
-0.3370,0.1846,0.2141,235,208,166
-0.3273,0.1853,0.2143,236,205,161
-0.3167,0.1847,0.2146,233,200,154
-0.3099,0.1861,0.2190,139,103,71
-0.3020,0.1946,0.2125,129,115,101
0.0776,0.1958,0.2131,77,44,15
0.0828,0.1956,0.2128,100,62,25
-0.3004,0.2060,0.2160,123,111,99
0.0701,0.2056,0.2127,83,63,36
-0.3014,0.2153,0.2143,120,108,96
0.0687,0.2182,0.2129,77,53,27
-0.3034,0.2256,0.2129,80,70,62
0.0696,0.2257,0.2116,67,48,18
-0.3055,0.2357,0.2128,56,51,48
0.0704,0.2353,0.2161,13,4,3
-0.3062,0.2430,0.2159,46,41,41
0.0709,0.2432,0.2137,5,0,0
-0.3113,0.2600,0.2113,34,32,35
0.0719,0.2569,0.2106,1,0,0
-0.3110,0.2638,0.2105,31,33,32
-0.3095,0.2689,0.2121,29,31,30
0.0755,0.2645,0.2136,0,0,0
-0.3005,0.2790,0.2151,28,30,32
0.0775,0.2774,0.2155,0,0,0
0.0800,0.2737,0.2154,0,0,0
-0.2959,0.2837,0.2155,62,68,77
0.0696,0.2873,0.2160,0,0,0
0.0712,0.2829,0.2161,0,0,0
-0.2860,0.2923,0.2161,80,90,100
-0.2759,0.2969,0.2144,79,88,98
-0.2688,0.2970,0.2176,86,95,105
-0.2569,0.2961,0.2132,80,89,98
-0.2425,0.2960,0.2165,93,103,109
-0.2326,0.2960,0.2156,96,105,113
-0.2155,0.2952,0.2158,94,103,109
-0.2041,0.2950,0.2152,97,104,112
-0.1916,0.2950,0.2152,98,105,113
-0.1855,0.2950,0.2123,98,108,117
-0.1765,0.2950,0.2115,108,115,123
-0.1640,0.2950,0.2163,137,105,113
-0.1539,0.2947,0.2131,163,101,110
-0.1453,0.2940,0.2150,184,94,100
-0.1363,0.2940,0.2164,135,112,120
-0.1220,0.2940,0.2198,118,122,131
-0.1117,0.2940,0.2107,114,119,128
-0.1015,0.2940,0.2168,117,120,129
-0.0923,0.2940,0.2147,169,106,117
-0.0866,0.2940,0.2140,217,88,99
-0.0745,0.2940,0.2115,202,87,100
-0.0631,0.2943,0.2127,161,97,107
-0.0562,0.2944,0.2119,105,112,120
-0.0448,0.2948,0.2150,104,111,121
-0.0330,0.2950,0.2182,102,109,119
-0.0252,0.2950,0.2146,98,107,116
-0.0196,0.2952,0.2192,105,111,123
-0.0075,0.2962,0.2147,94,102,115
0.0048,0.2986,0.2165,106,115,130
0.0608,0.2998,0.2191,47,38,29
0.0280,0.3044,0.2164,100,112,128
0.0341,0.3055,0.2140,89,104,122
0.0437,0.3080,0.2101,38,55,75
0.0596,0.3002,0.2113,63,50,41
-0.3410,0.1780,0.2234,235,205,163
-0.3357,0.1845,0.2256,233,202,157
-0.3246,0.1851,0.2249,230,196,150
-0.3153,0.1843,0.2227,232,198,153
-0.3080,0.1869,0.2223,126,101,80
-0.2995,0.1942,0.2252,138,122,105
0.0821,0.1959,0.2241,102,62,22
-0.2986,0.2031,0.2262,138,121,105
0.0741,0.2049,0.2248,78,50,23
-0.3003,0.2174,0.2230,102,90,80
-0.2996,0.2146,0.2248,123,110,97
0.0710,0.2149,0.2275,83,58,36
-0.3016,0.2253,0.2276,76,68,58
0.0707,0.2284,0.2264,33,19,12
-0.3032,0.2320,0.2233,57,52,49
0.0728,0.2388,0.2292,10,0,1
-0.3059,0.2479,0.2226,42,38,37
0.0728,0.2439,0.2267,7,1,1
-0.3105,0.2595,0.2272,38,36,37
-0.3074,0.2534,0.2260,39,36,37
0.0735,0.2531,0.2264,3,0,0
-0.3107,0.2616,0.2236,33,31,35
-0.3091,0.2670,0.2248,26,27,30
0.0765,0.2649,0.2219,0,0,0
-0.3043,0.2747,0.2249,26,27,32
0.0816,0.2719,0.2247,0,0,0
-0.2950,0.2828,0.2256,56,60,65
0.0731,0.2826,0.2274,0,0,0
-0.2794,0.2964,0.2206,81,91,100
-0.2616,0.2968,0.2253,77,86,93
-0.2554,0.2961,0.2227,77,86,93
-0.2457,0.2960,0.2234,91,98,109
-0.2248,0.2960,0.2286,100,107,113
-0.2180,0.2956,0.2221,104,111,119
-0.2091,0.2952,0.2259,102,109,117
-0.1944,0.2951,0.2237,107,117,123
-0.1859,0.2950,0.2236,110,120,129
-0.1668,0.2950,0.2241,207,88,94
-0.1528,0.2948,0.2227,209,92,100
-0.1493,0.2947,0.2264,113,120,130
-0.1333,0.2942,0.2237,116,121,130
-0.1235,0.2944,0.2245,118,122,131
-0.1185,0.2940,0.2222,117,120,129
-0.1077,0.2940,0.2272,119,122,131
-0.0975,0.2940,0.2233,120,122,131
-0.0855,0.2940,0.2255,154,115,125
-0.0754,0.2942,0.2219,210,85,93
-0.0659,0.2950,0.2223,190,98,111
-0.0566,0.2950,0.2212,212,88,98
-0.0454,0.2950,0.2282,105,112,122
-0.0352,0.2950,0.2273,107,109,119
-0.0157,0.2955,0.2248,101,109,120
-0.0036,0.2969,0.2237,102,110,122
0.0664,0.2949,0.2248,25,23,21
0.0118,0.3005,0.2241,102,114,130
0.0247,0.3039,0.2225,105,117,133
0.0333,0.3050,0.2271,104,120,138
0.0449,0.3073,0.2283,82,103,126
0.0533,0.3047,0.2226,16,31,50
-0.3412,0.1751,0.2364,237,206,162
-0.3381,0.1799,0.2348,234,203,157
-0.3150,0.1841,0.2348,229,196,149
-0.3079,0.1851,0.2343,206,166,125
-0.3010,0.1915,0.2377,144,126,112
-0.2975,0.1957,0.2363,134,116,100
0.0850,0.1976,0.2331,106,67,25
-0.2977,0.2037,0.2309,133,120,105
0.0781,0.2091,0.2390,84,60,34
0.0832,0.2012,0.2375,92,59,25
-0.2980,0.2139,0.2356,120,107,92
-0.3004,0.2266,0.2365,84,71,63
0.0733,0.2203,0.2364,75,49,22
-0.3016,0.2354,0.2351,61,54,49
0.0730,0.2354,0.2345,11,0,1
-0.3030,0.2448,0.2349,48,44,43
0.0738,0.2424,0.2358,9,0,0
-0.3071,0.2539,0.2321,43,39,40
0.0740,0.2551,0.2316,4,0,0
-0.3103,0.2618,0.2356,35,35,35
-0.3087,0.2667,0.2349,31,31,35
0.0766,0.2637,0.2321,0,0,0
0.0815,0.2691,0.2356,0,0,0
-0.3027,0.2750,0.2351,30,29,34
0.0794,0.2774,0.2344,0,0,0
0.0824,0.2731,0.2340,0,0,0
-0.2956,0.2806,0.2381,143,163,188
-0.2867,0.2897,0.2400,38,45,38
0.0739,0.2830,0.2374,0,0,0
-0.2834,0.2925,0.2348,82,91,101
-0.2747,0.2966,0.2358,79,87,98
-0.2653,0.2970,0.2329,77,86,95
-0.2563,0.2970,0.2354,83,92,101
-0.2486,0.2966,0.2353,90,97,107
-0.2368,0.2960,0.2343,92,99,109
-0.2268,0.2960,0.2375,95,101,113
-0.2129,0.2960,0.2342,101,110,118
-0.2003,0.2957,0.2305,115,124,131
-0.1877,0.2952,0.2368,145,105,109
-0.1771,0.2950,0.2337,205,81,91
-0.1653,0.2950,0.2349,146,107,116
-0.1564,0.2950,0.2342,115,122,129
-0.1438,0.2950,0.2371,120,124,133
-0.1367,0.2949,0.2353,121,127,134
-0.1260,0.2950,0.2318,120,120,130
-0.1167,0.2947,0.2341,124,128,137
-0.1073,0.2940,0.2364,123,127,133
-0.0976,0.2940,0.2358,125,128,133
-0.0896,0.2940,0.2346,122,127,133
-0.0738,0.2942,0.2340,119,123,131
-0.0645,0.2949,0.2340,167,106,116
-0.0586,0.2950,0.2357,213,88,96
-0.0436,0.2950,0.2355,179,92,105
-0.0218,0.2953,0.2333,103,112,121
-0.0063,0.2963,0.2332,106,115,130
0.0634,0.2985,0.2339,0,0,0
0.0091,0.3001,0.2384,107,119,133
0.0102,0.3002,0.2325,107,120,136
0.0257,0.3047,0.2343,112,125,142
0.0346,0.3056,0.2317,117,135,158
0.0458,0.3077,0.2395,118,136,160
0.0550,0.3045,0.2361,17,41,69
-0.3418,0.1608,0.2493,99,84,55
-0.3415,0.1727,0.2441,233,201,157
-0.3381,0.1784,0.2435,231,198,154
-0.3322,0.1843,0.2459,233,203,157
-0.3263,0.1853,0.2446,231,197,152
-0.3075,0.1849,0.2437,210,176,137
-0.2971,0.1953,0.2443,129,114,99
-0.2962,0.2070,0.2462,121,109,93
0.0777,0.2074,0.2495,86,60,36
0.0837,0.2014,0.2457,90,55,25
-0.2978,0.2156,0.2468,76,66,57
0.0767,0.2129,0.2416,84,60,34
-0.2993,0.2285,0.2487,69,62,52
0.0737,0.2264,0.2457,67,41,22
-0.3005,0.2357,0.2418,52,43,43
0.0740,0.2389,0.2483,21,6,0
-0.3008,0.2428,0.2496,43,38,35
0.0741,0.2451,0.2447,13,1,0
-0.3034,0.2517,0.2485,36,36,35
0.0752,0.2563,0.2418,1,0,0
-0.3100,0.2607,0.2402,34,34,34
-0.3064,0.2682,0.2473,26,27,30
0.0773,0.2626,0.2416,0,0,0
-0.3022,0.2745,0.2439,23,27,30
-0.2987,0.2773,0.2422,28,29,33
0.0830,0.2727,0.2442,0,0,0
-0.2947,0.2809,0.2471,36,51,48
0.0720,0.2878,0.2438,0,0,0
-0.2655,0.2970,0.2449,82,90,100
-0.2524,0.2970,0.2461,84,91,99
-0.2426,0.2963,0.2482,76,85,94
-0.2336,0.2960,0.2468,90,95,104
-0.2260,0.2960,0.2419,95,101,109
-0.2182,0.2960,0.2468,95,104,111
-0.2048,0.2958,0.2433,101,111,120
-0.1972,0.2951,0.2435,207,66,80
-0.1863,0.2950,0.2464,141,98,109
-0.1747,0.2950,0.2417,122,113,114
-0.1635,0.2950,0.2476,169,175,179
-0.1561,0.2950,0.2471,133,137,140
-0.1474,0.2950,0.2458,123,128,137
-0.1249,0.2950,0.2436,118,126,135
-0.1142,0.2949,0.2465,122,129,136
-0.1020,0.2947,0.2454,138,143,149
-0.0928,0.2947,0.2463,157,161,168
-0.0834,0.2941,0.2417,129,132,137
-0.0733,0.2949,0.2452,121,125,133
-0.0647,0.2950,0.2483,117,121,130
-0.0545,0.2950,0.2418,155,107,115
-0.0468,0.2953,0.2438,205,84,91
-0.0343,0.2956,0.2442,209,82,91
-0.0275,0.2956,0.2429,212,77,84
-0.0134,0.2963,0.2437,104,110,122
0.0031,0.2988,0.2441,102,110,121
0.0657,0.2972,0.2420,38,34,32
0.0705,0.2923,0.2438,0,0,0
0.0058,0.3001,0.2480,108,116,129
0.0167,0.3031,0.2439,112,123,139
0.0248,0.3054,0.2464,122,134,153
0.0398,0.3070,0.2494,132,148,171
0.0557,0.3044,0.2448,104,110,118
-0.3410,0.1614,0.2576,134,114,83
-0.3405,0.1728,0.2520,233,200,155
-0.3392,0.1747,0.2584,232,202,155
-0.3334,0.1808,0.2576,234,201,156
-0.3274,0.1844,0.2570,232,201,157
-0.3150,0.1840,0.2527,228,191,144
-0.3049,0.1840,0.2553,199,162,121
-0.2955,0.1951,0.2540,138,123,106
0.0859,0.1983,0.2545,99,60,24
-0.2953,0.2055,0.2537,116,103,89
0.0781,0.2061,0.2557,84,56,30
-0.2960,0.2129,0.2574,128,115,101
0.0747,0.2157,0.2578,71,49,27
-0.2988,0.2279,0.2527,85,72,64
0.0741,0.2261,0.2556,59,39,21
-0.2998,0.2381,0.2528,51,47,46
0.0740,0.2367,0.2551,66,45,25
-0.2998,0.2405,0.2557,46,41,38
0.0745,0.2447,0.2560,1,0,2
-0.3026,0.2519,0.2567,42,38,37
0.0754,0.2542,0.2544,0,0,0
-0.3069,0.2636,0.2531,34,31,33
0.0773,0.2633,0.2548,0,0,0
-0.3039,0.2716,0.2539,30,29,35
0.0779,0.2767,0.2580,0,0,0
0.0811,0.2742,0.2536,0,0,0
-0.2883,0.2864,0.2539,99,108,117
0.0740,0.2861,0.2571,0,0,0
-0.2721,0.2964,0.2579,74,81,91
-0.2620,0.2970,0.2579,76,85,92
-0.2549,0.2970,0.2541,75,84,92
-0.2381,0.2960,0.2564,80,88,98
-0.2264,0.2960,0.2566,91,94,102
-0.2193,0.2960,0.2546,92,99,109
-0.2081,0.2960,0.2531,96,103,110
-0.1938,0.2953,0.2572,96,105,110
-0.1845,0.2950,0.2566,104,111,119
-0.1724,0.2950,0.2550,117,125,128
-0.1659,0.2950,0.2565,207,211,214
-0.1548,0.2950,0.2578,194,199,205
-0.1441,0.2950,0.2527,144,152,155
-0.1374,0.2950,0.2538,179,180,185
-0.1271,0.2950,0.2543,125,131,137
-0.1160,0.2950,0.2555,171,178,183
-0.1041,0.2950,0.2557,127,135,140
-0.0985,0.2950,0.2510,129,129,137
-0.0837,0.2951,0.2573,147,152,160
-0.0775,0.2947,0.2526,126,130,139
-0.0609,0.2950,0.2533,121,125,134
-0.0531,0.2958,0.2530,115,120,127
-0.0445,0.2963,0.2536,180,94,105
-0.0359,0.2966,0.2554,212,78,93
-0.0218,0.2973,0.2560,106,115,122
-0.0157,0.2970,0.2512,105,112,123
-0.0089,0.2981,0.2565,105,111,123
0.0669,0.2966,0.2515,90,79,73
0.0710,0.2938,0.2567,0,0,0
0.0072,0.3014,0.2543,104,112,125
0.0165,0.3044,0.2592,113,125,138
0.0221,0.3052,0.2525,118,131,146
0.0326,0.3064,0.2525,125,141,160
0.0480,0.3070,0.2554,117,137,162
0.0573,0.3038,0.2541,84,92,100
-0.3405,0.1625,0.2627,103,88,63
-0.3396,0.1634,0.2693,165,146,111
-0.3372,0.1759,0.2683,234,201,156
-0.3310,0.1815,0.2668,233,200,155
-0.3254,0.1846,0.2668,235,205,159
-0.3136,0.1839,0.2669,225,187,142
-0.3030,0.1838,0.2651,229,191,142
-0.2969,0.1893,0.2683,119,104,83
-0.2935,0.1949,0.2635,107,92,75
0.0829,0.1986,0.2638,94,57,23
-0.2935,0.2059,0.2645,114,101,86
0.0768,0.2059,0.2651,82,53,26
0.0744,0.2127,0.2644,76,54,35
-0.2972,0.2238,0.2637,77,66,62
0.0733,0.2233,0.2671,75,57,37
-0.2985,0.2367,0.2636,48,40,39
0.0735,0.2348,0.2655,22,12,5
-0.3002,0.2449,0.2607,42,38,37
-0.2989,0.2442,0.2680,45,36,39
0.0742,0.2425,0.2622,1,0,0
-0.3023,0.2552,0.2665,39,34,38
0.0740,0.2522,0.2636,0,0,0
-0.3044,0.2650,0.2653,34,32,37
0.0761,0.2652,0.2632,0,0,0
-0.3035,0.2708,0.2603,28,27,32
-0.2955,0.2795,0.2656,32,32,37
0.0781,0.2721,0.2654,0,0,0
-0.2864,0.2873,0.2612,43,41,42
0.0739,0.2862,0.2649,0,0,0
-0.2743,0.2945,0.2665,77,84,94
-0.2561,0.2970,0.2659,74,81,89
-0.2430,0.2965,0.2637,75,83,91
-0.2325,0.2960,0.2662,87,96,103
-0.2241,0.2960,0.2654,82,89,97
-0.2066,0.2960,0.2652,93,100,109
-0.1969,0.2960,0.2670,98,105,113
-0.1853,0.2955,0.2657,100,107,115
-0.1712,0.2956,0.2682,199,205,205
-0.1678,0.2950,0.2619,110,119,124
-0.1515,0.2957,0.2665,120,127,133
-0.1467,0.2957,0.2654,121,128,134
-0.1358,0.2956,0.2653,148,155,161
-0.1284,0.2957,0.2698,128,137,144
-0.1174,0.2950,0.2631,129,136,144
-0.1026,0.2957,0.2687,146,153,161
-0.0987,0.2954,0.2641,132,141,150
-0.0841,0.2957,0.2659,134,141,150
-0.0642,0.2961,0.2657,130,133,142
-0.0527,0.2966,0.2628,120,124,133
-0.0413,0.2974,0.2648,116,120,129
-0.0348,0.2978,0.2680,105,112,120
-0.0287,0.2977,0.2626,102,106,117
-0.0150,0.2987,0.2657,104,108,118
-0.0095,0.2993,0.2697,110,117,127
0.0674,0.2970,0.2656,56,53,52
0.0042,0.3014,0.2649,106,114,125
0.0166,0.3044,0.2653,111,120,133
0.0225,0.3054,0.2662,114,125,140
0.0427,0.3068,0.2648,126,140,159
0.0563,0.3048,0.2665,115,115,122
-0.3387,0.1614,0.2762,101,85,59
-0.3362,0.1750,0.2766,191,166,127
-0.3316,0.1812,0.2717,231,199,152
-0.3273,0.1835,0.2746,233,202,157
-0.3145,0.1841,0.2760,230,196,152
-0.3024,0.1833,0.2728,219,181,138
-0.2923,0.1946,0.2732,129,114,97
0.0792,0.1946,0.2736,96,55,23
0.0828,0.1931,0.2744,75,46,20
-0.2918,0.2047,0.2730,116,100,85
-0.2945,0.2167,0.2748,75,61,46
0.0709,0.2145,0.2766,55,34,19
-0.2958,0.2262,0.2728,101,84,76
0.0696,0.2266,0.2784,0,0,0
0.0721,0.2245,0.2746,65,47,33
-0.2966,0.2366,0.2756,50,47,40
0.0714,0.2353,0.2750,2,0,0
-0.2974,0.2426,0.2756,49,39,40
0.0681,0.2459,0.2791,0,0,0
0.0715,0.2461,0.2735,0,0,0
-0.3009,0.2537,0.2760,47,41,45
0.0671,0.2581,0.2799,0,0,0
0.0718,0.2556,0.2749,0,0,0
-0.3036,0.2643,0.2743,34,31,37
0.0731,0.2679,0.2746,0,0,0
-0.3030,0.2714,0.2737,31,30,37
-0.2953,0.2796,0.2727,30,31,35
0.0674,0.2757,0.2800,0,0,0
0.0733,0.2796,0.2729,0,0,0
-0.2921,0.2823,0.2773,34,37,39
-0.2843,0.2877,0.2739,78,86,97
-0.2775,0.2914,0.2764,76,85,92
-0.2633,0.2970,0.2780,77,84,93
-0.2549,0.2970,0.2751,77,84,94
-0.2364,0.2962,0.2730,82,90,99
-0.2130,0.2960,0.2793,82,90,98
-0.2043,0.2960,0.2785,81,87,95
-0.1952,0.2960,0.2766,86,93,101
-0.1879,0.2960,0.2737,97,104,112
-0.1784,0.2960,0.2740,101,109,115
-0.1636,0.2959,0.2710,106,115,120
-0.1520,0.2960,0.2757,128,133,137
-0.1463,0.2960,0.2758,125,132,138
-0.1267,0.2959,0.2750,148,157,166
-0.1127,0.2961,0.2755,143,151,159
-0.1073,0.2960,0.2764,156,166,175
-0.0965,0.2960,0.2746,153,162,170
-0.0882,0.2960,0.2743,145,154,163
-0.0752,0.2963,0.2725,131,139,147
-0.0658,0.2967,0.2728,129,133,142
-0.0537,0.2972,0.2749,119,123,132
-0.0443,0.2978,0.2751,117,121,130
-0.0324,0.2981,0.2769,106,113,121
-0.0278,0.2986,0.2735,103,110,118
-0.0196,0.2990,0.2749,104,108,117
-0.0020,0.2999,0.2725,100,107,115
0.0018,0.2987,0.2794,108,116,125
0.0673,0.2934,0.2760,7,7,6
0.0700,0.2937,0.2722,0,0,0
0.0073,0.3015,0.2730,105,113,124
0.0176,0.3026,0.2749,111,117,129
0.0249,0.3044,0.2737,113,122,135
0.0356,0.3051,0.2741,111,122,136
0.0463,0.3051,0.2715,138,151,170
0.0531,0.3016,0.2758,116,129,145
-0.3373,0.1627,0.2850,102,87,67
-0.3350,0.1739,0.2854,193,166,131
-0.3254,0.1842,0.2820,235,206,164
-0.3142,0.1853,0.2853,232,199,154
-0.3040,0.1837,0.2846,226,191,144
-0.2989,0.1864,0.2872,164,138,109
0.0460,0.1955,0.2894,38,24,5
0.0568,0.1958,0.2880,52,27,5
0.0659,0.1947,0.2849,70,42,15
0.0731,0.1916,0.2866,94,58,27
0.0850,0.1915,0.2801,109,70,31
-0.2922,0.2006,0.2815,22,8,8
0.0435,0.2020,0.2895,22,7,2
0.0630,0.2008,0.2854,75,51,27
-0.2928,0.2145,0.2841,40,27,24
0.0426,0.2111,0.2893,42,25,5
0.0553,0.2142,0.2873,54,34,13
0.0663,0.2121,0.2814,62,41,22
-0.2942,0.2246,0.2861,66,54,45
0.0488,0.2207,0.2888,48,32,9
0.0569,0.2227,0.2872,50,29,12
0.0656,0.2227,0.2827,57,34,16
-0.2954,0.2331,0.2848,50,40,37
0.0482,0.2314,0.2894,2,0,1
0.0563,0.2380,0.2882,0,0,0
0.0632,0.2338,0.2839,1,0,0
-0.2991,0.2476,0.2846,49,38,38
0.0554,0.2457,0.2885,0,0,0
0.0663,0.2462,0.2808,0,0,0
-0.3008,0.2559,0.2845,102,48,52
0.0580,0.2543,0.2881,0,0,0
0.0637,0.2547,0.2830,0,0,0
-0.3016,0.2643,0.2843,111,48,48
0.0584,0.2646,0.2885,0,0,0
0.0625,0.2662,0.2846,0,0,0
-0.3013,0.2726,0.2847,70,40,44
-0.2940,0.2800,0.2826,36,35,40
0.0588,0.2755,0.2880,0,0,0
0.0670,0.2716,0.2809,0,0,0
-0.2913,0.2827,0.2825,35,40,41
-0.2892,0.2842,0.2886,48,46,51
0.0297,0.2852,0.2899,0,0,0
0.0357,0.2829,0.2900,0,0,0
0.0465,0.2845,0.2884,0,0,0
0.0505,0.2845,0.2878,0,0,0
0.0642,0.2856,0.2807,0,0,0
-0.2504,0.2970,0.2812,76,83,91
-0.2458,0.2970,0.2855,76,85,94
-0.2346,0.2968,0.2841,78,87,95
-0.2281,0.2962,0.2808,84,91,99
-0.2146,0.2960,0.2819,80,89,96
-0.1924,0.2959,0.2870,88,95,103
-0.1829,0.2960,0.2809,135,141,149
-0.1733,0.2959,0.2838,98,105,111
-0.1620,0.2960,0.2828,113,121,130
-0.1506,0.2960,0.2849,150,158,161
-0.1425,0.2960,0.2841,120,128,131
-0.1325,0.2960,0.2856,135,144,150
-0.1196,0.2963,0.2805,168,178,188
-0.1052,0.2961,0.2800,168,178,188
-0.0971,0.2965,0.2884,171,180,189
-0.0859,0.2965,0.2856,158,168,177
-0.0708,0.2967,0.2853,155,162,170
-0.0674,0.2968,0.2853,141,149,158
-0.0555,0.2960,0.2876,124,132,138
-0.0438,0.2962,0.2856,118,123,132
-0.0336,0.2968,0.2844,116,123,131
-0.0236,0.2962,0.2843,108,115,123
-0.0145,0.2944,0.2864,110,115,122
-0.0060,0.2939,0.2874,108,112,120
0.0013,0.2953,0.2862,105,112,121
0.0143,0.2952,0.2864,103,110,118
0.0277,0.2981,0.2831,101,106,115
0.0326,0.2953,0.2853,67,70,76
0.0416,0.2944,0.2861,90,92,100
0.0567,0.2963,0.2817,67,71,76
0.0609,0.2944,0.2806,0,1,0
0.0473,0.3009,0.2801,63,72,79
-0.3360,0.1636,0.2945,166,143,110
-0.3325,0.1731,0.2951,231,200,157
-0.3287,0.1789,0.2919,231,197,152
-0.3227,0.1845,0.2941,235,205,161
-0.3191,0.1871,0.2973,226,192,146
-0.3009,0.1882,0.2915,221,184,142
0.0055,0.1895,0.2973,49,30,15
0.0167,0.1888,0.2967,49,30,13
0.0269,0.1883,0.2984,55,31,7
0.0317,0.1890,0.2964,31,12,0
0.0449,0.1889,0.2982,65,36,6
0.0536,0.1886,0.2976,34,11,0
0.0665,0.1896,0.2955,78,46,14
-0.3134,0.1905,0.2926,225,192,147
-0.3080,0.1920,0.2948,227,193,147
-0.2980,0.1941,0.2997,122,106,90
-0.0228,0.1962,0.2986,59,40,20
-0.0144,0.1930,0.2985,55,36,21
-0.0037,0.1920,0.2976,47,27,10
0.0080,0.1954,0.2947,51,32,15
0.0184,0.1937,0.2938,48,29,11
0.0280,0.1940,0.2923,47,27,11
0.0349,0.1924,0.2917,45,29,11
0.0416,0.1925,0.2906,46,25,6
0.0522,0.1918,0.2909,36,23,7
0.0761,0.1900,0.2927,101,66,36
0.0845,0.1907,0.2936,113,74,36
-0.2945,0.2042,0.2937,20,4,7
-0.0568,0.2064,0.2995,67,46,27
-0.0442,0.2004,0.2998,61,42,25
-0.0334,0.2045,0.2978,58,38,18
-0.0277,0.2057,0.2969,63,42,21
-0.0163,0.2030,0.2961,63,42,26
-0.0058,0.2055,0.2943,55,33,17
0.0046,0.2047,0.2932,58,40,22
0.0161,0.2012,0.2924,47,28,13
0.0251,0.2074,0.2905,51,32,13
-0.2933,0.2186,0.2963,23,8,11
-0.0571,0.2181,0.2990,44,30,15
-0.0439,0.2134,0.2975,62,41,21
-0.0283,0.2118,0.2963,52,33,16
-0.0151,0.2106,0.2950,65,43,27
-0.0043,0.2164,0.2936,60,42,22
0.0127,0.2102,0.2924,59,40,23
0.0241,0.2131,0.2908,58,40,22
0.0334,0.2148,0.2901,52,33,16
-0.0542,0.2233,0.2990,7,0,0
-0.0423,0.2256,0.2979,10,0,0
-0.0354,0.2233,0.2970,26,13,6
-0.0240,0.2224,0.2959,5,0,0
-0.0144,0.2210,0.2949,44,27,17
-0.0018,0.2241,0.2940,13,4,1
0.0076,0.2234,0.2933,39,22,12
0.0175,0.2209,0.2927,58,35,19
0.0257,0.2255,0.2918,12,2,1
0.0367,0.2231,0.2904,56,33,15
-0.0492,0.2338,0.2993,7,0,0
-0.0352,0.2345,0.2981,10,0,0
-0.0250,0.2370,0.2974,9,0,0
-0.0140,0.2332,0.2960,7,0,0
-0.0046,0.2385,0.2956,5,0,0
0.0075,0.2381,0.2945,5,0,0
0.0190,0.2349,0.2927,5,0,0
0.0222,0.2300,0.2923,6,0,0
0.0352,0.2388,0.2911,4,0,0
0.0417,0.2355,0.2904,1,1,1
-0.0457,0.2403,0.2995,6,0,0
-0.0351,0.2456,0.2991,7,0,0
-0.0251,0.2433,0.2979,8,0,0
-0.0150,0.2426,0.2968,4,0,0
-0.0035,0.2440,0.2956,8,0,1
0.0063,0.2480,0.2947,5,1,0
0.0163,0.2471,0.2938,0,0,0
0.0245,0.2451,0.2927,1,0,0
0.0353,0.2432,0.2913,3,0,0
0.0407,0.2436,0.2906,2,0,1
-0.2992,0.2553,0.2955,65,40,39
-0.0366,0.2506,0.2997,4,0,0
-0.0268,0.2536,0.2988,7,0,0
-0.0135,0.2559,0.2970,4,0,0
-0.0055,0.2571,0.2958,5,0,0
0.0097,0.2558,0.2944,2,1,0
0.0107,0.2597,0.2943,6,0,0
0.0242,0.2570,0.2931,1,0,0
0.0301,0.2540,0.2925,4,0,0
0.0450,0.2520,0.2904,1,1,1
0.0523,0.2550,0.2906,0,0,0
-0.3013,0.2666,0.2930,205,55,64
-0.2999,0.2675,0.2996,204,65,62
-0.0219,0.2610,0.2986,4,0,0
-0.0136,0.2620,0.2984,3,0,0
-0.0046,0.2626,0.2978,5,1,0
0.0045,0.2624,0.2969,3,0,0
0.0159,0.2620,0.2951,1,0,0
0.0273,0.2672,0.2969,0,0,0
0.0338,0.2621,0.2928,3,0,0
0.0446,0.2639,0.2929,1,0,0
0.0506,0.2642,0.2923,1,1,1
-0.2970,0.2753,0.2968,99,43,45
-0.0090,0.2794,0.2997,0,0,0
0.0037,0.2773,0.2996,0,0,0
0.0150,0.2763,0.2988,0,0,0
0.0345,0.2751,0.2956,0,0,0
0.0450,0.2790,0.2915,1,1,1
0.0545,0.2745,0.2909,0,0,0
-0.2916,0.2808,0.2931,30,35,39
-0.2869,0.2848,0.2954,53,57,66
-0.2791,0.2889,0.2933,76,86,96
-0.0603,0.2893,0.2991,137,141,152
-0.0464,0.2877,0.2987,34,34,37
-0.0323,0.2861,0.2973,0,2,1
-0.0259,0.2858,0.2966,8,4,5
-0.0163,0.2851,0.2961,0,0,0
-0.0039,0.2808,0.2975,1,0,0
0.0056,0.2837,0.2938,0,0,0
0.0158,0.2839,0.2922,0,0,0
0.0235,0.2841,0.2910,0,0,0
0.0350,0.2812,0.2913,0,0,0
-0.2722,0.2918,0.2962,76,83,92
-0.2631,0.2957,0.2943,78,85,93
-0.2538,0.2965,0.2918,77,86,93
-0.2436,0.2963,0.2938,75,84,91
-0.2319,0.2957,0.2983,81,90,99
-0.2292,0.2959,0.2957,78,85,91
-0.2143,0.2959,0.2940,76,83,89
-0.2082,0.2959,0.2938,82,90,95
-0.1974,0.2951,0.2990,82,86,94
-0.1843,0.2955,0.2913,89,96,104
-0.1765,0.2952,0.2948,94,101,109
-0.1646,0.2953,0.2941,94,101,108
-0.1567,0.2957,0.2986,103,110,118
-0.1466,0.2960,0.2943,116,123,131
-0.1371,0.2963,0.2950,129,137,146
-0.1266,0.2966,0.2959,156,165,175
-0.1170,0.2962,0.2957,171,182,193
-0.1053,0.2966,0.2935,174,185,196
-0.0959,0.2949,0.2966,199,211,223
-0.0834,0.2949,0.2955,137,144,151
-0.0759,0.2944,0.2953,174,183,192
-0.0672,0.2928,0.2955,119,124,131
-0.0533,0.2930,0.2937,118,124,131
-0.0424,0.2931,0.2928,116,123,131
-0.0374,0.2916,0.2939,115,121,128
-0.0232,0.2925,0.2905,113,120,128
-0.0158,0.2922,0.2904,109,113,124
-0.0014,0.2908,0.2903,107,112,118
-0.3346,0.1617,0.3040,126,108,80
-0.3301,0.1716,0.3022,228,197,151
-0.3282,0.1741,0.3007,235,206,164
-0.3224,0.1803,0.3026,231,201,160
-0.3167,0.1844,0.3046,231,201,158
-0.3069,0.1886,0.3050,224,190,145
-0.0544,0.1895,0.3064,63,42,25
-0.0430,0.1872,0.3078,59,38,16
-0.0367,0.1862,0.3095,66,42,18
-0.0259,0.1877,0.3053,61,38,18
-0.0122,0.1872,0.3049,60,36,17
-0.0071,0.1865,0.3057,60,35,12
0.0044,0.1865,0.3048,53,25,5
0.0131,0.1864,0.3046,59,32,13
0.0242,0.1860,0.3047,62,37,7
0.0312,0.1861,0.3049,74,40,12
0.0409,0.1864,0.3051,72,42,12
0.0523,0.1874,0.3052,81,48,19
0.0614,0.1875,0.3073,78,47,18
-0.3035,0.1902,0.3081,221,186,144
-0.2976,0.1962,0.3039,155,135,113
-0.1254,0.1962,0.3091,57,38,22
-0.1053,0.1975,0.3063,68,49,32
-0.0983,0.1974,0.3056,69,47,33
-0.0846,0.1955,0.3055,57,41,25
-0.0650,0.1945,0.3042,56,34,19
-0.0553,0.1969,0.3018,64,42,25
-0.0418,0.1939,0.3018,59,38,14
-0.0383,0.1906,0.3035,57,35,14
0.0764,0.1901,0.3057,104,68,36
0.0847,0.1908,0.3063,109,72,36
-0.2956,0.2048,0.3062,102,88,76
-0.1391,0.2061,0.3098,67,50,32
-0.1147,0.2031,0.3063,60,41,22
-0.0922,0.2047,0.3029,46,28,12
-0.0826,0.2050,0.3016,71,52,35
-0.0755,0.2069,0.3014,59,38,19
-0.0659,0.2073,0.3003,65,46,29
-0.2932,0.2151,0.3062,89,77,69
-0.1420,0.2158,0.3094,43,28,17
-0.1380,0.2159,0.3089,31,22,14
-0.1262,0.2151,0.3069,61,45,30
-0.1149,0.2157,0.3054,38,23,16
-0.1050,0.2183,0.3039,9,1,0
-0.0938,0.2149,0.3028,51,34,19
-0.0739,0.2149,0.3008,46,31,18
-0.2934,0.2232,0.3049,88,75,70
-0.1409,0.2224,0.3097,8,3,0
-0.1371,0.2233,0.3090,6,0,0
-0.1272,0.2235,0.3074,10,2,0
-0.1136,0.2261,0.3060,9,2,0
-0.1031,0.2283,0.3047,9,0,0
-0.0848,0.2267,0.3021,15,8,5
-0.0763,0.2244,0.3016,6,1,1
-0.0644,0.2278,0.3010,5,0,0
-0.2963,0.2354,0.3050,68,49,47
-0.1346,0.2324,0.3094,7,1,1
-0.1225,0.2344,0.3080,8,1,0
-0.1179,0.2350,0.3076,6,0,0
-0.1050,0.2391,0.3058,4,0,0
-0.0968,0.2355,0.3043,2,0,0
-0.0875,0.2349,0.3029,6,0,0
-0.0750,0.2352,0.3021,2,0,0
-0.0640,0.2371,0.3011,6,0,0
-0.0585,0.2334,0.3006,4,0,0
-0.2969,0.2437,0.3052,102,54,52
-0.1223,0.2463,0.3088,3,0,0
-0.1160,0.2453,0.3076,4,0,0
-0.1030,0.2456,0.3056,0,0,0
-0.0933,0.2428,0.3039,3,0,0
-0.0836,0.2496,0.3029,0,0,0
-0.0718,0.2450,0.3020,2,1,0
-0.0633,0.2433,0.3014,3,0,0
-0.0534,0.2430,0.3005,6,0,0
-0.2976,0.2544,0.3049,96,50,48
-0.1266,0.2515,0.3100,0,0,0
-0.1092,0.2506,0.3066,0,0,0
-0.0966,0.2583,0.3066,0,0,0
-0.0865,0.2556,0.3043,0,0,0
-0.0722,0.2590,0.3036,0,0,0
-0.0643,0.2535,0.3026,0,0,0
-0.0556,0.2569,0.3026,0,0,0
-0.0453,0.2550,0.3010,1,0,0
-0.0400,0.2581,0.3006,4,0,0
-0.2978,0.2619,0.3062,45,40,36
-0.1074,0.2605,0.3090,0,0,0
-0.0908,0.2612,0.3064,0,0,0
-0.0827,0.2609,0.3049,0,0,0
-0.0740,0.2626,0.3070,0,0,0
-0.0619,0.2632,0.3076,0,0,0
-0.0547,0.2648,0.3089,0,0,0
-0.0440,0.2628,0.3047,1,0,0
-0.0345,0.2647,0.3051,2,0,0
-0.0262,0.2697,0.3086,2,0,1
-0.0142,0.2669,0.3039,2,0,0
0.0026,0.2661,0.3005,5,1,0
0.0182,0.2697,0.3006,1,1,1
-0.2969,0.2718,0.3063,40,35,36
-0.0737,0.2796,0.3091,0,0,0
-0.0652,0.2790,0.3084,0,0,0
-0.0585,0.2777,0.3090,0,0,0
-0.0439,0.2769,0.3078,1,0,0
-0.0329,0.2751,0.3087,1,0,0
-0.0277,0.2786,0.3040,1,0,0
-0.0179,0.2722,0.3090,0,0,0
-0.0069,0.2751,0.3035,2,0,0
0.0124,0.2719,0.3035,2,0,1
0.0201,0.2739,0.3003,0,0,0
-0.2870,0.2835,0.3066,53,54,62
-0.2753,0.2893,0.3047,84,92,102
-0.1290,0.2869,0.3093,63,63,65
-0.1126,0.2859,0.3089,0,0,0
-0.1005,0.2856,0.3075,0,0,0
-0.0940,0.2849,0.3072,0,0,1
-0.0854,0.2856,0.3058,0,0,0
-0.0746,0.2854,0.3037,0,0,0
-0.0665,0.2875,0.3011,0,0,0
-0.0553,0.2823,0.3041,0,0,0
-0.0446,0.2809,0.3039,0,0,0
-0.0386,0.2806,0.3032,0,0,0
-0.2638,0.2942,0.3054,88,97,106
-0.2574,0.2950,0.3040,82,91,100
-0.2419,0.2958,0.3051,80,88,97
-0.2355,0.2950,0.3067,77,85,93
-0.2254,0.2951,0.3031,77,85,94
-0.2160,0.2946,0.3069,78,86,94
-0.2045,0.2952,0.3050,74,81,89
-0.1935,0.2948,0.3045,74,81,89
-0.1832,0.2947,0.3064,76,83,92
-0.1753,0.2948,0.3048,82,89,96
-0.1652,0.2945,0.3052,84,91,98
-0.1551,0.2947,0.3045,90,97,106
-0.1438,0.2954,0.3018,106,113,121
-0.1347,0.2939,0.3032,104,109,117
-0.1229,0.2943,0.3028,117,122,128
-0.1163,0.2938,0.3023,123,130,137
-0.1061,0.2918,0.3034,50,52,57
-0.0954,0.2920,0.3009,54,54,56
-0.0858,0.2919,0.3007,121,129,135
-0.3319,0.1634,0.3150,164,140,108
-0.3294,0.1677,0.3156,229,201,161
-0.3252,0.1723,0.3153,229,197,157
-0.3185,0.1783,0.3177,234,206,166
-0.3061,0.1840,0.3169,227,197,154
-0.2952,0.1855,0.3166,145,122,95
-0.1758,0.1899,0.3186,55,43,31
-0.1619,0.1888,0.3193,70,45,23
-0.1447,0.1881,0.3180,48,27,10
-0.1329,0.1881,0.3169,57,38,21
-0.1222,0.1871,0.3168,65,46,28
-0.1083,0.1869,0.3159,66,45,28
-0.0969,0.1868,0.3147,59,39,22
-0.0838,0.1859,0.3124,54,32,15
-0.0759,0.1845,0.3177,55,34,15
-0.0611,0.1863,0.3109,57,36,17
-0.0572,0.1854,0.3180,58,35,17
-0.0403,0.1851,0.3185,60,38,15
-0.0264,0.1853,0.3134,64,39,16
-0.0139,0.1854,0.3167,77,51,26
-0.0075,0.1852,0.3135,69,43,19
0.0095,0.1855,0.3141,87,57,33
0.0180,0.1858,0.3155,77,43,15
0.0286,0.1860,0.3150,85,54,25
0.0344,0.1865,0.3168,85,54,25
0.0547,0.1871,0.3188,96,63,32
0.0666,0.1886,0.3108,101,66,34
-0.2917,0.1953,0.3135,115,100,87
-0.2883,0.1977,0.3155,165,151,141
-0.1935,0.1957,0.3191,64,50,37
-0.1835,0.1935,0.3185,59,45,32
-0.1734,0.1939,0.3171,60,45,31
-0.1636,0.1947,0.3153,62,44,29
-0.1545,0.1948,0.3137,66,49,34
-0.1452,0.1955,0.3122,57,41,24
-0.1360,0.1957,0.3106,60,42,27
-0.1194,0.1937,0.3102,59,40,25
-0.1019,0.1908,0.3104,65,48,32
0.0757,0.1903,0.3110,114,78,46
0.0857,0.1910,0.3169,118,75,40
-0.2844,0.2060,0.3196,152,143,128
-0.2027,0.2054,0.3196,66,53,37
-0.1963,0.2075,0.3184,68,54,41
-0.1748,0.2059,0.3154,61,44,31
-0.1662,0.2079,0.3138,70,52,38
-0.1568,0.2054,0.3121,60,41,24
-0.1403,0.2006,0.3105,66,49,33
-0.2862,0.2142,0.3184,47,38,29
-0.2018,0.2143,0.3194,60,47,38
-0.1841,0.2118,0.3167,50,37,22
-0.1744,0.2188,0.3156,11,7,1
-0.1621,0.2144,0.3131,44,28,19
-0.2905,0.2241,0.3133,63,50,44
-0.1934,0.2250,0.3192,18,11,6
-0.1876,0.2248,0.3180,17,9,5
-0.1790,0.2277,0.3166,13,5,3
-0.1630,0.2256,0.3141,5,1,0
-0.1545,0.2276,0.3127,7,2,0
-0.1487,0.2228,0.3111,10,5,2
-0.1752,0.2305,0.3167,16,8,5
-0.1623,0.2347,0.3149,8,1,0
-0.1557,0.2325,0.3134,7,2,0
-0.1454,0.2356,0.3117,5,1,0
-0.1371,0.2360,0.3102,5,0,0
-0.2940,0.2454,0.3109,62,49,43
-0.2878,0.2453,0.3190,40,41,35
-0.1737,0.2479,0.3181,11,3,1
-0.1631,0.2442,0.3160,6,2,0
-0.1536,0.2474,0.3149,2,0,0
-0.1416,0.2458,0.3122,2,0,0
-0.1354,0.2480,0.3112,0,0,0
-0.2946,0.2580,0.3108,53,44,37
-0.1651,0.2516,0.3175,8,0,0
-0.1523,0.2573,0.3186,2,1,0
-0.1443,0.2587,0.3175,1,0,0
-0.1361,0.2545,0.3133,0,0,0
-0.1232,0.2558,0.3106,0,0,0
-0.2933,0.2646,0.3132,40,36,37
-0.1427,0.2613,0.3183,0,0,0
-0.1372,0.2620,0.3173,0,0,0
-0.1221,0.2644,0.3166,0,0,0
-0.1166,0.2621,0.3125,0,0,0
-0.1058,0.2674,0.3172,0,0,0
-0.0986,0.2665,0.3157,0,0,0
-0.0872,0.2657,0.3139,0,0,0
-0.0735,0.2700,0.3155,0,0,0
-0.0696,0.2670,0.3122,0,0,0
-0.2904,0.2720,0.3192,29,31,30
-0.1432,0.2785,0.3185,0,0,0
-0.1361,0.2772,0.3195,0,0,0
-0.1271,0.2768,0.3188,0,0,0
-0.1143,0.2771,0.3173,0,0,0
-0.1050,0.2780,0.3156,0,0,0
-0.0963,0.2764,0.3157,0,0,0
-0.0845,0.2746,0.3157,0,0,0
-0.0747,0.2753,0.3142,0,0,0
-0.0614,0.2724,0.3142,0,0,0
-0.0528,0.2745,0.3113,0,0,0
-0.0412,0.2719,0.3129,2,0,1
-0.0366,0.2738,0.3107,0,0,0
-0.2838,0.2839,0.3153,39,43,46
-0.2787,0.2841,0.3196,110,126,139
-0.2513,0.2886,0.3191,86,96,105
-0.2269,0.2891,0.3174,37,41,46
-0.2053,0.2877,0.3166,41,43,46
-0.1924,0.2843,0.3179,13,8,4
-0.1857,0.2815,0.3190,12,7,4
-0.1749,0.2826,0.3167,21,19,18
-0.1658,0.2847,0.3137,16,12,9
-0.1570,0.2841,0.3129,0,0,0
-0.1439,0.2837,0.3122,18,19,21
-0.1317,0.2833,0.3116,0,0,0
-0.1253,0.2832,0.3113,0,0,0
-0.2642,0.2919,0.3129,97,105,116
-0.2551,0.2941,0.3107,82,91,100
-0.2436,0.2926,0.3131,84,92,102
-0.2349,0.2928,0.3124,80,89,97
-0.2228,0.2927,0.3128,80,88,96
-0.2132,0.2936,0.3112,78,86,93
-0.2063,0.2923,0.3132,74,83,90
-0.1997,0.2940,0.3117,40,44,47
-0.1849,0.2925,0.3110,75,84,91
-0.3284,0.1658,0.3268,167,147,111
-0.3223,0.1734,0.3234,231,202,161
-0.3143,0.1793,0.3269,231,197,160
-0.3059,0.1835,0.3262,226,195,151
-0.2970,0.1834,0.3242,226,191,149
-0.2847,0.1839,0.3246,119,100,83
-0.2411,0.1884,0.3284,61,47,37
-0.2324,0.1861,0.3284,55,40,30
-0.2247,0.1861,0.3281,56,39,27
-0.2116,0.1849,0.3292,71,50,31
-0.2052,0.1862,0.3263,63,46,30
-0.1957,0.1861,0.3261,62,43,23
-0.1856,0.1860,0.3252,61,37,18
-0.1763,0.1853,0.3256,71,45,25
-0.1656,0.1847,0.3256,65,42,21
-0.1558,0.1841,0.3254,63,42,23
-0.1435,0.1845,0.3236,66,45,27
-0.1355,0.1840,0.3223,62,41,23
-0.1230,0.1837,0.3250,72,50,31
-0.1145,0.1842,0.3221,66,45,25
-0.1049,0.1840,0.3269,69,47,28
-0.0966,0.1840,0.3284,73,52,33
-0.0855,0.1843,0.3238,65,43,26
-0.0767,0.1842,0.3235,66,42,23
-0.0658,0.1845,0.3230,65,42,25
-0.0581,0.1850,0.3276,70,49,32
-0.0383,0.1850,0.3263,69,47,24
-0.0258,0.1851,0.3250,73,49,25
-0.0153,0.1859,0.3253,78,52,29
-0.0050,0.1860,0.3255,77,48,24
0.0069,0.1868,0.3291,88,58,34
0.0152,0.1867,0.3280,94,64,36
0.0247,0.1866,0.3243,93,62,32
0.0343,0.1870,0.3261,97,66,35
0.0462,0.1871,0.3250,99,66,35
0.0553,0.1875,0.3253,108,75,44
0.0659,0.1889,0.3204,103,69,39
-0.2829,0.1910,0.3222,121,106,89
-0.2512,0.1996,0.3288,66,54,40
-0.2249,0.1948,0.3237,54,40,27
-0.2133,0.1945,0.3222,58,47,34
-0.2040,0.1941,0.3203,45,32,20
0.0835,0.1922,0.3251,123,84,51
-0.2823,0.2100,0.3225,13,9,6
-0.2763,0.2029,0.3259,99,82,68
-0.2448,0.2038,0.3264,72,58,47
-0.2349,0.2034,0.3242,62,50,37
-0.2268,0.2025,0.3226,71,57,45
-0.2144,0.2041,0.3211,61,51,39
-0.2802,0.2171,0.3259,2,0,1
-0.2769,0.2152,0.3273,64,52,41
-0.2504,0.2154,0.3279,47,36,24
-0.2373,0.2150,0.3250,56,45,32
-0.2221,0.2193,0.3229,16,8,6
-0.2169,0.2131,0.3213,57,45,35
-0.2078,0.2195,0.3205,13,5,3
-0.2838,0.2254,0.3241,53,47,43
-0.2781,0.2225,0.3280,26,18,16
-0.2608,0.2228,0.3295,11,4,0
-0.2574,0.2271,0.3289,17,8,6
-0.2488,0.2299,0.3272,16,7,2
-0.2270,0.2256,0.3239,33,24,18
-0.2129,0.2260,0.3215,17,7,6
-0.1981,0.2269,0.3203,14,8,8
-0.2826,0.2346,0.3262,15,13,13
-0.2618,0.2307,0.3298,12,7,4
-0.2538,0.2373,0.3284,13,6,0
-0.2448,0.2369,0.3267,15,5,2
-0.2329,0.2338,0.3251,10,5,1
-0.2287,0.2360,0.3247,14,9,6
-0.2153,0.2334,0.3225,13,4,5
-0.2050,0.2350,0.3216,14,6,5
-0.1948,0.2367,0.3208,17,9,6
-0.2824,0.2446,0.3261,0,0,1
-0.2776,0.2438,0.3284,12,9,2
-0.2508,0.2444,0.3282,12,5,2
-0.2312,0.2447,0.3255,12,6,1
-0.2123,0.2482,0.3229,18,8,7
-0.2064,0.2435,0.3221,16,8,5
-0.1909,0.2410,0.3206,16,9,3
-0.1898,0.2456,0.3206,16,8,5
-0.2826,0.2570,0.3259,0,0,0
-0.2782,0.2576,0.3286,5,3,4
-0.2264,0.2520,0.3258,12,5,0
-0.2051,0.2524,0.3232,16,8,4
-0.1829,0.2562,0.3226,14,5,3
-0.1790,0.2532,0.3208,12,2,0
-0.1652,0.2594,0.3216,5,1,0
-0.1582,0.2581,0.3200,2,1,0
-0.2861,0.2670,0.3239,1,1,1
-0.2166,0.2608,0.3290,13,6,0
-0.1914,0.2649,0.3289,13,6,0
-0.1862,0.2664,0.3300,11,1,0
-0.1732,0.2623,0.3246,12,2,0
-0.1657,0.2665,0.3275,5,0,0
-0.1580,0.2662,0.3267,0,0,0
-0.1412,0.2692,0.3251,0,0,0
-0.1327,0.2692,0.3234,0,0,0
-0.1251,0.2673,0.3206,0,0,0
-0.2829,0.2764,0.3245,9,12,16
