-0.0950,0.1172,0.0544,205,169,124
-0.0852,0.1179,0.0579,199,165,120
-0.0737,0.1174,0.0543,197,159,115
-0.0600,0.1180,0.0553,191,157,112
-0.0483,0.1180,0.0506,201,163,118
-0.0363,0.1180,0.0543,199,164,122
-0.0255,0.1180,0.0566,202,169,127
-0.0006,0.1180,0.0554,208,175,134
0.0036,0.1186,0.0536,210,177,136
0.0703,0.1183,0.0548,196,164,126
0.0164,0.1208,0.0529,197,165,125
0.0295,0.1218,0.0569,196,164,126
0.0400,0.1220,0.0526,194,162,124
0.0465,0.1220,0.0532,194,162,123
0.0527,0.1219,0.0568,196,164,126
0.0646,0.1205,0.0577,194,160,123
-0.3119,0.1144,0.0615,191,157,120
-0.3064,0.1140,0.0642,196,162,125
-0.2881,0.1144,0.0660,205,162,127
-0.2777,0.1141,0.0664,203,160,122
-0.2554,0.1142,0.0645,201,156,119
-0.2447,0.1147,0.0650,202,157,121
-0.2345,0.1155,0.0651,197,158,119
-0.2107,0.1162,0.0668,198,161,119
-0.2012,0.1166,0.0652,196,162,120
-0.1948,0.1166,0.0650,201,166,123
-0.1823,0.1170,0.0603,208,169,126
-0.1745,0.1172,0.0677,210,172,127
-0.1634,0.1179,0.0648,207,170,126
-0.1542,0.1176,0.0623,206,169,124
-0.1464,0.1171,0.0613,208,171,126
-0.1339,0.1171,0.0637,206,169,124
-0.1227,0.1180,0.0654,205,168,124
-0.1121,0.1180,0.0629,200,162,115
-0.1012,0.1180,0.0688,200,163,118
-0.0958,0.1174,0.0641,200,166,121
-0.0816,0.1180,0.0695,198,160,113
-0.0731,0.1180,0.0648,198,162,118
-0.0635,0.1179,0.0633,198,160,116
-0.0566,0.1181,0.0654,201,162,119
-0.0469,0.1180,0.0641,201,167,122
-0.0347,0.1180,0.0659,199,166,125
-0.0185,0.1181,0.0621,207,174,133
-0.0056,0.1184,0.0639,207,174,131
0.0063,0.1185,0.0683,206,172,133
0.0171,0.1195,0.0694,201,169,130
0.0707,0.1198,0.0633,193,161,123
0.0167,0.1202,0.0607,193,161,123
0.0250,0.1207,0.0645,194,164,128
0.0359,0.1215,0.0683,195,163,126
0.0558,0.1220,0.0667,197,165,128
0.0671,0.1215,0.0667,197,166,129
-0.3104,0.1157,0.0752,191,155,117
-0.3098,0.1156,0.0731,193,158,120
-0.2950,0.1160,0.0711,197,156,119
-0.2835,0.1156,0.0771,194,157,120
-0.2701,0.1146,0.0753,206,164,124
-0.2537,0.1152,0.0732,195,151,114
-0.2453,0.1165,0.0767,168,111,88
-0.2344,0.1177,0.0769,184,139,106
-0.2265,0.1164,0.0728,189,150,111
-0.2160,0.1174,0.0738,179,180,175
-0.2079,0.1187,0.0752,78,58,31
-0.1970,0.1182,0.0740,148,131,106
-0.1833,0.1184,0.0748,191,171,147
-0.1704,0.1177,0.0727,206,170,122
-0.1652,0.1180,0.0756,206,167,122
-0.1546,0.1180,0.0756,205,167,122
-0.1458,0.1180,0.0740,206,169,124
-0.1347,0.1181,0.0748,204,166,121
-0.1269,0.1173,0.0717,208,171,127
-0.1169,0.1180,0.0749,206,169,124
-0.1062,0.1180,0.0746,202,165,120
-0.0987,0.1180,0.0724,202,166,118
-0.0893,0.1180,0.0727,198,161,116
-0.0716,0.1180,0.0740,198,159,116
-0.0511,0.1185,0.0728,202,169,124
-0.0411,0.1182,0.0753,200,166,121
-0.0340,0.1187,0.0749,200,163,120
-0.0251,0.1182,0.0716,205,170,129
-0.0152,0.1185,0.0738,205,173,132
-0.0054,0.1186,0.0747,209,176,135
0.0085,0.1183,0.0737,210,175,137
0.0130,0.1185,0.0767,209,175,137
0.0222,0.1195,0.0757,195,164,127
-0.1923,0.1206,0.0781,166,162,153
0.0306,0.1206,0.0782,192,156,122
0.0426,0.1212,0.0799,195,165,129
0.0681,0.1223,0.0753,197,165,127
0.0710,0.1220,0.0768,198,166,128
-0.3120,0.1163,0.0829,186,151,113
-0.3054,0.1171,0.0859,192,155,119
-0.2969,0.1175,0.0836,191,155,118
-0.2772,0.1157,0.0852,204,168,123
-0.2672,0.1166,0.0837,64,47,29
-0.2413,0.1180,0.0815,204,151,117
-0.1566,0.1196,0.0812,173,140,107
-0.1256,0.1191,0.0861,208,171,126
-0.1131,0.1183,0.0825,202,165,119
-0.0961,0.1184,0.0845,204,168,123
-0.0871,0.1189,0.0851,201,167,123
-0.0761,0.1187,0.0830,172,136,95
-0.0662,0.1183,0.0840,198,159,116
-0.0555,0.1189,0.0848,200,162,118
-0.0459,0.1189,0.0863,205,168,124
-0.0335,0.1189,0.0858,207,171,127
-0.0225,0.1188,0.0871,202,167,125
-0.0160,0.1187,0.0854,204,170,129
-0.0044,0.1192,0.0865,206,174,132
0.0048,0.1181,0.0815,211,176,138
0.0127,0.1183,0.0852,211,177,137
-0.2533,0.1241,0.0884,179,122,120
-0.2449,0.1219,0.0848,177,121,116
-0.2378,0.1207,0.0832,191,63,71
-0.2238,0.1237,0.0831,157,163,157
-0.2154,0.1241,0.0828,192,198,197
-0.2068,0.1262,0.0830,161,162,157
-0.1950,0.1264,0.0836,177,179,174
-0.1855,0.1256,0.0841,174,174,167
-0.1761,0.1255,0.0856,178,177,170
-0.1669,0.1273,0.0883,176,178,173
-0.1566,0.1238,0.0884,159,152,140
-0.1484,0.1201,0.0851,147,132,109
-0.1347,0.1206,0.0892,210,176,132
0.0366,0.1208,0.0846,194,162,126
0.0458,0.1211,0.0864,199,169,133
0.0574,0.1222,0.0893,202,172,137
0.0673,0.1228,0.0843,201,171,135
-0.2631,0.1324,0.0893,192,199,191
-0.2433,0.1330,0.0883,192,214,213
-0.2337,0.1331,0.0871,187,206,213
-0.2295,0.1379,0.0886,197,223,240
-0.2169,0.1344,0.0862,201,219,226
-0.2035,0.1300,0.0853,195,205,206
-0.1972,0.1359,0.0874,202,212,221
-0.1744,0.1355,0.0896,173,169,164
-0.2201,0.1421,0.0897,194,216,230
-0.2068,0.1445,0.0896,202,221,238
-0.1940,0.1440,0.0892,204,217,229
-0.1840,0.1435,0.0900,203,213,225
-0.1880,0.1538,0.0895,205,222,237
-0.3122,0.1164,0.0927,188,151,112
-0.3036,0.1182,0.0946,185,145,108
-0.2842,0.1179,0.0924,163,117,94
-0.2666,0.1192,0.0910,220,74,85
-0.1152,0.1196,0.0925,209,172,127
-0.1024,0.1194,0.0944,207,170,125
-0.0918,0.1192,0.0944,203,169,124
-0.0751,0.1191,0.0965,200,162,117
-0.0626,0.1189,0.0935,202,164,119
-0.0552,0.1195,0.0929,204,165,122
-0.0440,0.1190,0.0990,208,171,127
-0.0364,0.1192,0.0908,203,166,122
-0.0233,0.1195,0.0956,211,174,130
-0.0129,0.1194,0.0954,208,174,131
-0.0041,0.1197,0.0984,207,172,134
0.0089,0.1196,0.0976,207,173,135
0.0162,0.1190,0.0940,206,174,135
0.0235,0.1190,0.0938,202,172,136
0.0320,0.1190,0.0992,205,170,137
-0.2912,0.1202,0.0974,175,130,101
-0.2840,0.1250,0.0990,187,133,115
-0.2737,0.1261,0.0924,208,137,136
-0.2622,0.1240,0.0913,203,140,141
-0.2586,0.1225,0.0909,224,77,84
-0.1456,0.1236,0.0915,221,229,240
-0.1350,0.1250,0.0943,147,129,111
-0.1250,0.1224,0.0967,171,149,121
0.0376,0.1202,0.0926,194,164,128
0.0586,0.1223,0.0973,205,172,137
0.0676,0.1225,0.0947,201,171,135
0.0704,0.1219,0.0948,202,172,138
-0.2742,0.1363,0.0950,185,200,198
-0.2658,0.1343,0.0911,186,201,196
-0.2523,0.1354,0.0907,202,227,231
-0.2463,0.1389,0.0915,203,227,227
-0.1639,0.1399,0.0916,201,205,208
-0.1538,0.1339,0.0930,63,41,43
-0.1408,0.1383,0.0954,80,60,51
-0.1363,0.1356,0.0961,133,111,104
-0.1268,0.1345,0.0992,117,102,93
-0.2629,0.1445,0.0985,198,220,237
-0.2560,0.1434,0.0942,196,219,232
-0.2461,0.1431,0.0938,200,224,237
-0.2356,0.1456,0.0930,211,235,248
-0.2255,0.1456,0.0918,206,233,251
-0.2136,0.1499,0.0931,211,233,254
-0.2072,0.1478,0.0913,191,210,224
-0.1682,0.1445,0.0915,199,208,217
-0.1535,0.1439,0.0931,194,194,194
-0.1473,0.1421,0.0942,165,147,133
-0.1353,0.1458,0.0964,123,109,96
-0.1255,0.1453,0.0983,57,44,38
-0.2434,0.1502,0.0987,218,244,255
-0.2252,0.1503,0.0959,215,240,254
-0.2194,0.1530,0.1000,215,236,255
-0.2042,0.1562,0.0962,209,230,245
-0.1991,0.1564,0.0942,205,226,243
-0.1829,0.1504,0.0906,192,203,209
-0.1765,0.1561,0.0920,205,217,230
-0.1694,0.1527,0.0923,200,210,222
-0.1571,0.1556,0.0938,209,221,230
-0.1453,0.1553,0.0948,192,193,195
-0.1390,0.1546,0.0954,190,188,189
-0.1273,0.1555,0.0966,177,171,163
-0.1122,0.1568,0.0978,111,86,78
-0.1096,0.1516,0.1000,91,73,59
-0.1938,0.1625,0.0967,200,217,231
-0.1863,0.1665,0.0967,167,181,190
-0.1717,0.1669,0.0942,128,136,141
-0.1581,0.1677,0.0957,209,222,236
-0.1499,0.1642,0.0955,204,212,223
-0.1365,0.1636,0.0960,187,193,198
-0.1154,0.1643,0.0970,184,189,191
-0.1058,0.1649,0.0978,192,193,187
-0.0960,0.1653,0.0999,196,206,198
-0.1718,0.1753,0.0982,43,38,33
-0.1658,0.1769,0.0986,64,58,53
-0.1550,0.1783,0.0991,147,149,152
-0.1429,0.1714,0.0971,206,218,230
-0.1263,0.1742,0.0967,106,113,112
-0.1180,0.1744,0.0971,126,130,127
-0.0963,0.1755,0.0994,207,216,215
-0.1611,0.1812,0.0998,228,240,254
-0.1517,0.1803,0.0997,225,238,255
-0.1343,0.1810,0.0987,222,234,234
-0.1274,0.1865,0.0986,120,130,126
-0.1133,0.1871,0.0978,45,53,46
-0.0991,0.1894,0.0991,181,186,182
-0.1264,0.1923,0.0997,131,136,132
-0.1023,0.1953,0.0988,119,125,125
-0.1133,0.2044,0.0991,131,138,151
-0.1085,0.2012,0.0981,202,208,206
-0.0967,0.2042,0.0989,75,66,58
-0.0861,0.2012,0.0998,67,42,46
-0.1008,0.2131,0.0986,39,33,37
-0.0881,0.2122,0.0997,197,215,235
-0.3129,0.1158,0.1045,189,152,115
-0.3069,0.1173,0.1065,189,153,117
-0.2993,0.1198,0.1056,189,153,119
-0.0765,0.1196,0.1029,116,90,57
-0.0638,0.1193,0.1000,179,145,107
-0.0592,0.1196,0.1001,200,161,118
0.0059,0.1200,0.1017,203,168,128
0.0160,0.1193,0.1021,213,181,143
0.0238,0.1194,0.1087,205,171,135
0.0336,0.1190,0.1063,208,177,142
0.0433,0.1199,0.1007,200,171,137
-0.2960,0.1207,0.1059,176,131,102
-0.2874,0.1254,0.1034,181,90,86
-0.1132,0.1241,0.1035,157,136,121
-0.1071,0.1232,0.1044,180,162,142
-0.0942,0.1229,0.1063,198,189,177
-0.0865,0.1214,0.1058,205,170,128
-0.0797,0.1218,0.1095,121,100,71
-0.0650,0.1203,0.1087,200,198,199
-0.0508,0.1205,0.1086,213,174,131
-0.0456,0.1205,0.1067,212,156,121
-0.0370,0.1202,0.1042,212,171,129
-0.0233,0.1205,0.1063,217,178,133
-0.0134,0.1203,0.1052,217,179,132
-0.0084,0.1201,0.1054,210,174,131
0.0087,0.1205,0.1089,206,168,131
0.0471,0.1208,0.1001,207,178,146
0.0551,0.1215,0.1038,203,174,142
0.0653,0.1230,0.1064,202,173,141
-0.2832,0.1352,0.1091,200,132,152
-0.2774,0.1392,0.1021,189,189,201
-0.1220,0.1328,0.1009,73,47,32
-0.1147,0.1353,0.1032,98,74,68
-0.1059,0.1328,0.1061,134,120,113
-0.0972,0.1320,0.1084,194,190,189
-0.0886,0.1304,0.1098,205,208,213
-0.2733,0.1428,0.1050,197,218,242
-0.2658,0.1463,0.1028,206,229,250
-0.1139,0.1427,0.1018,75,44,39
-0.1048,0.1449,0.1041,122,108,101
-0.0959,0.1438,0.1068,89,66,60
-0.0882,0.1499,0.1069,47,27,20
-0.2542,0.1534,0.1052,216,241,255
-0.2457,0.1547,0.1059,217,245,248
-0.2377,0.1544,0.1049,220,244,254
-0.2257,0.1546,0.1058,220,245,254
-0.2144,0.1562,0.1058,217,241,252
-0.2086,0.1581,0.1048,198,223,238
-0.0959,0.1540,0.1032,106,98,88
-0.0842,0.1556,0.1068,99,82,73
-0.0797,0.1533,0.1092,80,51,43
-0.2050,0.1609,0.1057,214,235,252
-0.1955,0.1662,0.1049,202,221,239
-0.0916,0.1654,0.1015,185,180,171
-0.0881,0.1610,0.1040,158,142,127
-0.0762,0.1647,0.1075,143,126,113
-0.1873,0.1748,0.1067,98,108,121
-0.1795,0.1752,0.1013,41,43,42
-0.0834,0.1722,0.1031,104,94,81
-0.0751,0.1745,0.1059,62,37,35
-0.0677,0.1768,0.1087,119,114,112
-0.1726,0.1866,0.1080,148,160,172
-0.1658,0.1827,0.1018,83,92,102
-0.1446,0.1872,0.1008,205,218,231
-0.0919,0.1824,0.1001,57,57,47
-0.0819,0.1854,0.1018,86,71,68
-0.0749,0.1838,0.1035,36,36,38
-0.0646,0.1845,0.1070,172,170,167
-0.0565,0.1884,0.1087,108,96,85
-0.1648,0.1920,0.1074,120,139,153
-0.1539,0.1960,0.1054,148,156,161
-0.1448,0.1912,0.1018,221,237,252
-0.1348,0.1960,0.1023,222,237,253
-0.1237,0.1983,0.1009,207,222,239
-0.0836,0.1939,0.1005,29,19,18
-0.0755,0.1938,0.1020,121,121,111
-0.0537,0.1950,0.1082,57,42,41
-0.0471,0.1985,0.1099,63,43,44
-0.1521,0.2020,0.1090,217,234,252
-0.1458,0.2045,0.1093,235,248,255
-0.1383,0.2045,0.1060,210,221,230
-0.1260,0.2032,0.1025,221,235,251
-0.0763,0.2043,0.1022,99,91,90
-0.0553,0.2053,0.1080,186,201,217
-0.1232,0.2130,0.1060,195,200,202
-0.1168,0.2140,0.1024,129,134,136
-0.1099,0.2178,0.1007,176,182,194
-0.0928,0.2177,0.1005,211,218,228
-0.0811,0.2134,0.1023,48,48,50
-0.0665,0.2131,0.1071,193,210,227
-0.0564,0.2109,0.1092,196,213,231
-0.1141,0.2221,0.1051,202,213,218
-0.1055,0.2248,0.1045,41,40,41
-0.0952,0.2252,0.1036,68,69,78
-0.0826,0.2266,0.1067,98,102,110
-0.0761,0.2226,0.1075,149,157,168
-0.0946,0.2345,0.1093,152,167,186
-0.0852,0.2327,0.1091,137,148,168
-0.3126,0.1148,0.1167,190,154,118
0.0253,0.1199,0.1159,206,174,136
0.0459,0.1194,0.1140,201,172,138
-0.2967,0.1240,0.1150,147,86,71
-0.0812,0.1257,0.1117,164,165,159
-0.0735,0.1225,0.1116,154,148,134
-0.0663,0.1244,0.1132,183,170,161
-0.0560,0.1249,0.1149,177,149,145
-0.0460,0.1241,0.1147,159,118,108
-0.0366,0.1237,0.1145,142,101,89
-0.0264,0.1234,0.1150,210,166,158
-0.0188,0.1213,0.1133,206,81,75
-0.0064,0.1217,0.1179,200,82,68
0.0030,0.1204,0.1121,203,165,128
0.0148,0.1204,0.1170,200,165,129
0.0207,0.1200,0.1177,201,167,132
0.0600,0.1220,0.1165,204,178,145
0.0673,0.1230,0.1138,183,157,128
0.0709,0.1230,0.1107,204,175,145
-0.2921,0.1303,0.1159,158,31,48
-0.2875,0.1346,0.1165,170,175,186
-0.0863,0.1379,0.1110,106,66,66
-0.0740,0.1349,0.1158,109,92,84
-0.0625,0.1340,0.1189,109,92,86
-0.2806,0.1403,0.1144,193,207,220
-0.2770,0.1447,0.1151,191,209,233
-0.0811,0.1414,0.1127,73,44,38
-0.0773,0.1463,0.1131,77,42,36
-0.0656,0.1426,0.1173,88,55,48
-0.0577,0.1432,0.1199,76,48,44
-0.2617,0.1530,0.1138,221,245,255
-0.2559,0.1553,0.1121,211,234,245
-0.2450,0.1583,0.1147,219,243,254
-0.2373,0.1571,0.1109,222,246,255
-0.0759,0.1556,0.1100,58,29,25
-0.0628,0.1561,0.1144,169,153,134
-0.0542,0.1549,0.1180,167,153,139
-0.2305,0.1605,0.1142,226,250,254
-0.2234,0.1620,0.1170,225,248,254
-0.2180,0.1620,0.1159,130,150,157
-0.2015,0.1654,0.1103,210,236,235
-0.1993,0.1670,0.1139,207,229,252
-0.0679,0.1650,0.1103,168,150,138
-0.0586,0.1672,0.1134,111,92,81
-0.0480,0.1668,0.1189,113,99,90
-0.1938,0.1723,0.1141,208,230,244
-0.1850,0.1777,0.1118,193,219,230
-0.0549,0.1776,0.1130,147,135,123
-0.0439,0.1724,0.1197,78,73,67
-0.1820,0.1822,0.1128,176,198,210
-0.1773,0.1875,0.1140,137,155,172
-0.0542,0.1833,0.1114,147,135,121
-0.0432,0.1888,0.1149,85,80,83
-0.0371,0.1867,0.1195,154,158,161
-0.1759,0.1904,0.1171,185,208,231
-0.1647,0.1974,0.1145,187,202,215
-0.0432,0.1986,0.1121,107,106,109
-0.1572,0.2029,0.1140,201,217,232
-0.1450,0.2088,0.1134,192,202,209
-0.0481,0.2067,0.1112,198,217,232
-0.0343,0.2045,0.1181,199,216,230
-0.1348,0.2154,0.1128,227,239,249
-0.1293,0.2186,0.1126,179,188,195
-0.0622,0.2174,0.1108,97,102,96
-0.0470,0.2172,0.1180,18,24,24
-0.0384,0.2115,0.1178,205,224,243
-0.1226,0.2209,0.1118,194,204,212
-0.1147,0.2285,0.1147,204,214,223
-0.0725,0.2263,0.1121,49,32,36
-0.0621,0.2254,0.1166,24,27,31
-0.0542,0.2202,0.1155,25,29,32
-0.1119,0.2316,0.1165,188,192,204
-0.1059,0.2342,0.1137,202,210,223
-0.0998,0.2356,0.1110,188,205,231
-0.0756,0.2343,0.1153,104,91,96
-0.0689,0.2332,0.1196,109,36,42
-0.0948,0.2432,0.1168,222,235,254
-0.0852,0.2429,0.1171,201,214,238
-0.0787,0.2419,0.1183,211,218,246
-0.3129,0.1144,0.1229,183,144,108
-0.3053,0.1181,0.1222,184,139,106
0.0340,0.1199,0.1245,205,174,138
-0.2979,0.1248,0.1264,110,77,61
-0.0156,0.1261,0.1209,224,226,221
-0.0042,0.1260,0.1258,206,164,152
0.0045,0.1236,0.1260,197,164,135
0.0161,0.1210,0.1267,198,161,128
0.0581,0.1211,0.1262,211,181,149
0.0668,0.1228,0.1258,208,179,145
0.0707,0.1230,0.1223,211,181,147
-0.2915,0.1338,0.1245,141,76,88
-0.2889,0.1364,0.1276,163,178,194
-0.0538,0.1316,0.1205,120,107,103
-0.0467,0.1352,0.1217,115,103,100
-0.0344,0.1343,0.1228,131,108,99
-0.0215,0.1326,0.1237,117,92,78
-0.0096,0.1331,0.1272,153,135,123
-0.2820,0.1439,0.1258,172,192,219
-0.2786,0.1473,0.1279,179,201,226
-0.0546,0.1429,0.1205,98,76,71
-0.0445,0.1479,0.1222,159,147,145
-0.0326,0.1441,0.1246,74,51,41
-0.0206,0.1434,0.1266,98,60,52
-0.0109,0.1430,0.1296,92,60,49
-0.2613,0.1561,0.1258,206,228,249
-0.2565,0.1582,0.1246,216,239,254
-0.0459,0.1560,0.1211,123,109,106
-0.0309,0.1524,0.1259,187,184,177
-0.0244,0.1512,0.1273,204,205,207
-0.2411,0.1641,0.1296,221,245,255
-0.2345,0.1644,0.1274,215,238,254
-0.2138,0.1661,0.1270,134,156,160
-0.2035,0.1671,0.1207,43,63,61
-0.0422,0.1667,0.1210,60,43,35
-0.0351,0.1650,0.1234,141,137,139
-0.0251,0.1655,0.1276,132,129,125
-0.1945,0.1755,0.1264,171,190,202
-0.1894,0.1776,0.1216,192,215,229
-0.0355,0.1765,0.1227,63,52,49
-0.0222,0.1712,0.1285,186,200,211
-0.1823,0.1865,0.1225,196,216,228
-0.0345,0.1848,0.1217,92,88,87
-0.0242,0.1874,0.1263,163,165,167
-0.1744,0.1924,0.1264,137,149,151
-0.1669,0.1999,0.1221,155,168,174
-0.0328,0.1913,0.1207,163,166,170
-0.0249,0.1941,0.1244,168,172,176
-0.1606,0.2035,0.1209,216,221,225
-0.1538,0.2077,0.1256,213,228,235
-0.0261,0.2026,0.1233,197,215,227
-0.0182,0.2091,0.1288,192,210,222
-0.1458,0.2124,0.1246,209,217,223
-0.1386,0.2173,0.1220,212,226,237
-0.0404,0.2163,0.1203,27,37,39
-0.0350,0.2155,0.1236,21,25,27
-0.0261,0.2127,0.1263,210,229,245
-0.1332,0.2221,0.1253,246,252,253
-0.1255,0.2256,0.1209,133,138,146
-0.0600,0.2272,0.1209,12,30,34
-0.0529,0.2236,0.1217,25,33,37
-0.0443,0.2207,0.1240,12,18,20
-0.1207,0.2312,0.1249,221,225,233
-0.1164,0.2359,0.1257,219,208,219
-0.0676,0.2329,0.1214,52,32,34
-0.1128,0.2421,0.1280,211,195,205
-0.1060,0.2449,0.1245,192,192,204
-0.0969,0.2462,0.1216,224,236,249
-0.0877,0.2470,0.1223,234,237,255
-0.0761,0.2448,0.1240,229,155,176
-0.0666,0.2427,0.1276,58,42,46
-0.0921,0.2527,0.1298,189,191,206
-0.3134,0.1144,0.1344,183,142,106
-0.3081,0.1166,0.1325,181,140,105
0.0426,0.1200,0.1363,199,167,129
-0.2965,0.1231,0.1349,87,20,20
0.0173,0.1257,0.1362,190,155,123
0.0251,0.1214,0.1342,207,171,135
0.0319,0.1207,0.1377,214,180,143
0.0412,0.1200,0.1385,209,178,147
0.0546,0.1203,0.1321,208,178,142
0.0674,0.1223,0.1333,215,185,154
-0.2917,0.1340,0.1333,119,110,111
-0.2888,0.1347,0.1397,142,143,138
-0.0002,0.1380,0.1336,88,57,39
0.0067,0.1344,0.1362,164,128,105
-0.2811,0.1447,0.1378,154,165,185
-0.2774,0.1472,0.1379,162,178,203
-0.0027,0.1457,0.1347,115,94,85
-0.2664,0.1543,0.1353,206,229,253
-0.2545,0.1594,0.1344,205,228,252
-0.0161,0.1583,0.1311,210,215,218
-0.0059,0.1554,0.1358,219,221,222
-0.2418,0.1637,0.1342,217,240,255
-0.2345,0.1668,0.1384,227,247,255
-0.2242,0.1662,0.1306,121,140,150
-0.2127,0.1688,0.1343,181,206,211
-0.0137,0.1682,0.1341,78,74,73
-0.0045,0.1625,0.1374,203,211,213
-0.2043,0.1724,0.1379,162,183,189
-0.1933,0.1766,0.1329,191,214,228
-0.0143,0.1766,0.1332,217,231,239
-0.0081,0.1748,0.1368,223,237,246
-0.1885,0.1802,0.1336,207,225,237
-0.1792,0.1873,0.1330,158,175,178
-0.0148,0.1857,0.1332,211,218,224
-0.1752,0.1907,0.1327,199,217,227
-0.1688,0.1966,0.1386,219,229,238
-0.0123,0.1937,0.1340,165,172,177
-0.0084,0.1983,0.1358,179,187,192
-0.1609,0.2038,0.1344,196,210,214
-0.0133,0.2063,0.1314,187,201,212
-0.0074,0.2041,0.1363,171,180,188
-0.1522,0.2108,0.1369,216,229,237
-0.1468,0.2146,0.1359,161,164,164
-0.0335,0.2178,0.1304,23,28,31
-0.0253,0.2170,0.1327,27,33,34
-0.0136,0.2166,0.1346,201,217,235
-0.0064,0.2135,0.1369,184,200,212
-0.1361,0.2219,0.1318,207,210,213
-0.1283,0.2287,0.1360,214,218,220
-0.0564,0.2267,0.1353,21,22,24
-0.0474,0.2212,0.1316,10,15,18
-0.0395,0.2202,0.1398,10,12,11
-0.0158,0.2212,0.1361,82,94,102
-0.0085,0.2216,0.1381,173,190,208
-0.1237,0.2337,0.1368,216,223,235
-0.0602,0.2326,0.1367,11,44,51
-0.1161,0.2449,0.1371,145,146,155
-0.0637,0.2435,0.1341,43,31,35
-0.1044,0.2538,0.1370,160,160,171
-0.0925,0.2559,0.1344,240,201,212
-0.0839,0.2548,0.1339,244,245,254
-0.0759,0.2549,0.1360,198,116,140
-0.0676,0.2517,0.1367,131,41,51
-0.3133,0.1149,0.1463,180,141,105
-0.3014,0.1174,0.1448,130,83,64
-0.2907,0.1264,0.1418,114,110,108
0.0185,0.1285,0.1409,194,191,202
0.0263,0.1241,0.1432,196,150,121
0.0344,0.1216,0.1469,210,176,142
0.0418,0.1207,0.1470,210,177,144
0.0582,0.1210,0.1442,208,178,142
0.0680,0.1217,0.1456,220,191,157
0.0704,0.1219,0.1406,214,185,151
-0.2840,0.1364,0.1472,159,168,177
0.0150,0.1380,0.1447,134,124,123
0.0216,0.1328,0.1486,175,150,126
-0.2806,0.1420,0.1455,133,139,153
-0.2787,0.1455,0.1443,138,149,168
0.0063,0.1475,0.1402,184,175,166
0.0147,0.1437,0.1469,37,24,25
-0.2664,0.1535,0.1431,194,220,245
-0.2545,0.1584,0.1500,200,221,250
0.0076,0.1556,0.1427,173,173,175
0.0109,0.1578,0.1473,193,204,210
-0.2458,0.1604,0.1456,209,232,254
-0.2351,0.1635,0.1464,222,245,254
-0.2247,0.1665,0.1457,139,155,161
0.0069,0.1665,0.1462,191,199,204
-0.2100,0.1706,0.1446,52,70,72
-0.1935,0.1764,0.1454,184,204,214
-0.0012,0.1751,0.1408,192,203,208
0.0061,0.1752,0.1478,123,130,127
-0.1835,0.1833,0.1435,207,227,237
-0.1781,0.1880,0.1443,175,191,197
0.0027,0.1849,0.1463,123,127,127
-0.1714,0.1946,0.1460,200,218,229
-0.1672,0.1982,0.1448,115,127,134
-0.0022,0.1940,0.1425,159,162,166
0.0029,0.1947,0.1484,103,107,110
-0.1633,0.2020,0.1441,211,225,233
-0.1565,0.2087,0.1432,202,217,226
-0.0026,0.2050,0.1415,171,184,193
0.0025,0.2098,0.1468,172,179,185
-0.1541,0.2111,0.1460,164,171,175
-0.1476,0.2165,0.1465,168,169,171
-0.0356,0.2198,0.1428,9,11,10
0.0006,0.2162,0.1439,174,188,201
-0.1414,0.2213,0.1479,205,210,214
-0.1374,0.2240,0.1443,221,224,226
-0.0542,0.2252,0.1440,12,10,11
-0.0459,0.2207,0.1454,10,12,12
-0.0341,0.2213,0.1446,3,6,5
-0.0253,0.2249,0.1446,5,9,10
-0.0132,0.2281,0.1457,80,90,98
-0.0012,0.2278,0.1477,220,232,240
0.0025,0.2215,0.1467,191,208,215
-0.1272,0.2339,0.1437,133,133,140
-0.0604,0.2344,0.1441,37,2,3
-0.0118,0.2312,0.1486,0,1,0
-0.0007,0.2312,0.1498,224,240,255
-0.0614,0.2448,0.1498,27,7,6
-0.1150,0.2512,0.1486,170,168,179
-0.1053,0.2565,0.1429,197,195,206
-0.0985,0.2577,0.1423,241,240,255
-0.0668,0.2559,0.1443,62,34,36
-0.0871,0.2604,0.1492,255,189,217
-0.0761,0.2604,0.1464,84,48,54
-0.3110,0.1145,0.1544,181,144,106
-0.3043,0.1149,0.1536,75,56,40
-0.2916,0.1184,0.1576,70,44,29
-0.2871,0.1240,0.1538,68,38,37
0.0275,0.1289,0.1545,124,106,94
0.0341,0.1231,0.1554,93,54,31
0.0474,0.1210,0.1586,216,182,144
0.0656,0.1216,0.1506,218,188,154
-0.2816,0.1332,0.1540,85,71,59
-0.2783,0.1327,0.1580,83,38,31
-0.2735,0.1454,0.1556,141,146,154
-0.2680,0.1479,0.1579,147,157,167
0.0186,0.1446,0.1519,47,27,29
0.0231,0.1442,0.1570,63,51,46
-0.2638,0.1519,0.1524,171,190,211
-0.2555,0.1551,0.1552,196,218,243
-0.2472,0.1572,0.1566,197,219,244
0.0164,0.1537,0.1511,173,173,173
0.0218,0.1546,0.1582,152,148,147
-0.2439,0.1601,0.1504,213,234,255
-0.2328,0.1609,0.1588,221,243,255
-0.2186,0.1643,0.1568,162,174,185
-0.2093,0.1664,0.1583,151,164,173
0.0165,0.1675,0.1567,93,94,92
-0.2039,0.1710,0.1531,104,118,118
-0.1937,0.1766,0.1544,178,198,206
0.0145,0.1765,0.1580,22,23,24
-0.1849,0.1827,0.1535,166,180,184
-0.1789,0.1874,0.1553,165,178,182
0.0083,0.1812,0.1519,24,24,24
0.0127,0.1865,0.1574,16,17,14
-0.1719,0.1938,0.1570,169,183,188
-0.1676,0.1978,0.1535,212,225,234
0.0073,0.1927,0.1530,13,12,10
0.0106,0.1902,0.1557,11,15,14
-0.1633,0.2023,0.1550,226,240,248
0.0054,0.2052,0.1528,112,121,127
-0.1499,0.2155,0.1513,154,153,149
-0.0434,0.2197,0.1596,4,10,10
0.0063,0.2128,0.1543,131,142,151
-0.0618,0.2294,0.1561,13,0,0
-0.0585,0.2284,0.1539,12,6,6
-0.0462,0.2216,0.1551,4,7,6
-0.0363,0.2227,0.1561,4,7,7
0.0097,0.2268,0.1571,17,15,18
-0.1330,0.2320,0.1545,223,225,233
-0.0601,0.2303,0.1511,21,1,2
-0.0232,0.2310,0.1559,5,7,5
-0.0161,0.2341,0.1564,12,15,14
0.0045,0.2354,0.1568,32,34,36
-0.1240,0.2445,0.1573,195,198,207
-0.0621,0.2433,0.1559,14,7,5
-0.1165,0.2530,0.1555,178,182,193
-0.1074,0.2589,0.1552,186,181,188
-0.0614,0.2541,0.1534,41,33,31
-0.1017,0.2600,0.1521,205,202,223
-0.0941,0.2600,0.1547,235,152,178
-0.0865,0.2622,0.1570,255,74,94
-0.0751,0.2636,0.1544,88,55,61
-0.0686,0.2613,0.1533,85,44,48
-0.3138,0.1118,0.1641,184,146,109
-0.3090,0.1129,0.1646,185,147,110
-0.2965,0.1160,0.1624,179,146,105
-0.2845,0.1177,0.1657,77,28,19
-0.2801,0.1231,0.1609,80,68,56
-0.2727,0.1234,0.1674,75,43,36
-0.2695,0.1292,0.1680,87,71,58
0.0349,0.1246,0.1646,84,61,41
0.0475,0.1211,0.1619,152,118,88
0.0565,0.1220,0.1661,186,156,122
0.0661,0.1227,0.1645,223,196,162
0.0710,0.1230,0.1641,0,0,0
-0.2749,0.1344,0.1609,123,114,115
-0.2684,0.1356,0.1665,99,89,82
0.0274,0.1356,0.1622,110,95,84
-0.2711,0.1415,0.1614,99,92,86
-0.2652,0.1448,0.1652,129,131,137
-0.2575,0.1473,0.1678,152,166,182
0.0278,0.1450,0.1671,59,43,37
-0.2437,0.1550,0.1633,192,211,234
-0.2366,0.1529,0.1691,172,189,207
-0.2284,0.1569,0.1663,171,188,205
-0.2122,0.1600,0.1693,144,160,160
0.0251,0.1536,0.1649,91,82,76
-0.2316,0.1601,0.1609,208,228,253
-0.2213,0.1613,0.1621,165,182,198
-0.2181,0.1607,0.1638,164,180,195
-0.2038,0.1665,0.1650,124,137,139
0.0213,0.1651,0.1630,3,0,0
-0.1940,0.1756,0.1633,142,156,158
-0.1880,0.1797,0.1654,186,205,211
0.0169,0.1782,0.1623,16,16,15
0.0228,0.1747,0.1695,90,93,95
-0.1825,0.1837,0.1658,150,164,167
-0.1748,0.1889,0.1687,191,210,217
0.0156,0.1836,0.1619,18,19,21
-0.1724,0.1925,0.1648,208,225,232
0.0146,0.1965,0.1653,10,11,9
-0.1608,0.2043,0.1651,184,195,201
0.0145,0.2042,0.1682,5,5,2
-0.1533,0.2135,0.1626,159,161,165
-0.1478,0.2186,0.1651,228,239,246
-0.0602,0.2182,0.1679,3,5,2
-0.0523,0.2185,0.1652,1,3,2
-0.0482,0.2187,0.1656,4,12,14
-0.1393,0.2263,0.1657,162,161,161
-0.0628,0.2230,0.1642,1,0,0
-0.0576,0.2215,0.1620,4,4,2
-0.0403,0.2220,0.1642,5,11,11
-0.0333,0.2266,0.1654,7,10,8
0.0122,0.2239,0.1643,4,5,4
-0.1352,0.2309,0.1617,237,241,250
-0.1280,0.2397,0.1664,194,202,213
-0.0654,0.2352,0.1643,13,2,1
-0.0273,0.2323,0.1678,4,9,6
-0.0102,0.2388,0.1646,11,13,12
-0.0048,0.2397,0.1653,8,8,9
0.0058,0.2388,0.1647,0,0,0
0.0107,0.2337,0.1625,1,1,1
-0.1254,0.2435,0.1683,211,219,230
-0.0660,0.2450,0.1692,7,28,23
-0.1170,0.2548,0.1682,194,198,209
-0.0930,0.2617,0.1667,206,206,228
-0.0847,0.2657,0.1613,156,80,94
-0.0737,0.2674,0.1636,130,72,84
-0.0628,0.2603,0.1623,33,18,13
-0.3126,0.1109,0.1747,185,148,111
-0.3065,0.1136,0.1756,184,146,108
-0.2974,0.1147,0.1733,181,147,108
-0.2863,0.1157,0.1730,183,151,113
-0.2768,0.1169,0.1733,46,22,13
-0.2692,0.1165,0.1780,52,17,13
-0.2620,0.1241,0.1759,107,97,89
0.0369,0.1223,0.1753,54,16,4
0.0451,0.1212,0.1721,82,52,32
0.0637,0.1235,0.1786,241,217,181
0.0704,0.1239,0.1744,232,207,173
-0.2622,0.1340,0.1727,110,103,95
-0.2572,0.1363,0.1756,95,87,74
-0.2481,0.1397,0.1793,133,139,151
0.0339,0.1321,0.1748,100,22,18
-0.2507,0.1481,0.1717,163,172,189
-0.2409,0.1439,0.1796,149,157,170
-0.2349,0.1476,0.1786,138,145,163
0.0300,0.1482,0.1738,133,115,101
-0.2420,0.1511,0.1702,132,144,156
-0.2382,0.1519,0.1701,151,163,179
-0.2241,0.1533,0.1728,176,191,209
-0.2140,0.1540,0.1757,165,181,193
-0.2073,0.1583,0.1761,22,28,29
0.0266,0.1569,0.1722,72,63,53
-0.2061,0.1606,0.1745,133,141,143
-0.1984,0.1645,0.1781,140,150,151
0.0258,0.1661,0.1767,2,0,0
-0.1918,0.1730,0.1756,80,87,90
-0.1838,0.1787,0.1766,69,75,77
0.0235,0.1773,0.1731,1,0,0
-0.1736,0.1894,0.1762,183,197,206
0.0222,0.1825,0.1710,18,14,11
-0.1732,0.1909,0.1744,163,173,182
-0.1679,0.1962,0.1728,153,162,164
0.0178,0.1978,0.1704,10,10,10
-0.1621,0.2011,0.1756,170,179,182
-0.1572,0.2085,0.1723,218,228,237
0.0171,0.2054,0.1755,4,4,1
-0.1529,0.2132,0.1747,201,211,218
-0.1470,0.2188,0.1783,207,214,220
-0.0622,0.2131,0.1777,4,15,7
-0.0452,0.2187,0.1751,1,1,1
0.0154,0.2161,0.1758,0,0,0
-0.1431,0.2229,0.1758,158,156,150
-0.0717,0.2219,0.1756,4,5,0
-0.0699,0.2265,0.1717,9,1,0
-0.0400,0.2211,0.1751,7,15,17
-0.0375,0.2241,0.1760,1,3,3
0.0147,0.2264,0.1785,0,0,0
-0.1337,0.2323,0.1789,178,184,190
-0.1299,0.2372,0.1750,156,158,171
-0.0308,0.2329,0.1778,2,4,8
-0.0269,0.2345,0.1770,4,7,8
-0.0179,0.2389,0.1744,11,15,16
0.0082,0.2374,0.1706,0,0,0
0.0122,0.2327,0.1711,1,1,0
-0.1243,0.2449,0.1785,202,208,227
-0.0678,0.2412,0.1727,16,5,1
-0.0110,0.2402,0.1720,13,14,16
-0.0032,0.2422,0.1730,16,17,16
0.0040,0.2432,0.1771,1,0,1
-0.1138,0.2564,0.1743,195,197,210
-0.0659,0.2525,0.1751,19,8,4
-0.0953,0.2622,0.1729,189,194,221
-0.0844,0.2680,0.1755,113,60,61
-0.0712,0.2675,0.1752,111,43,42
-0.0655,0.2645,0.1716,66,31,27
-0.3119,0.1114,0.1867,183,146,109
-0.3055,0.1141,0.1846,186,149,113
-0.2953,0.1151,0.1883,184,148,111
-0.2858,0.1157,0.1849,185,151,111
-0.2750,0.1150,0.1852,128,99,70
-0.2525,0.1176,0.1885,74,59,42
-0.2530,0.1259,0.1834,91,78,61
-0.2473,0.1242,0.1887,91,78,61
0.0359,0.1244,0.1841,77,11,8
0.0550,0.1226,0.1847,106,75,60
0.0693,0.1240,0.1819,194,173,146
0.0704,0.1240,0.1855,239,213,182
-0.2510,0.1349,0.1808,103,94,82
-0.2464,0.1367,0.1820,107,96,85
-0.2392,0.1386,0.1846,111,106,102
-0.2338,0.1441,0.1832,145,153,165
-0.2236,0.1485,0.1841,155,165,178
-0.2036,0.1488,0.1892,177,187,199
0.0329,0.1446,0.1826,32,16,8
-0.2193,0.1509,0.1818,163,176,192
-0.2057,0.1539,0.1828,134,143,150
-0.1955,0.1570,0.1884,143,146,153
0.0304,0.1575,0.1847,0,0,0
-0.1962,0.1627,0.1821,133,141,143
-0.1885,0.1681,0.1858,14,14,16
0.0278,0.1654,0.1851,0,0,1
-0.1836,0.1736,0.1848,62,64,65
0.0254,0.1767,0.1871,34,32,29
-0.1736,0.1857,0.1846,90,95,101
0.0235,0.1847,0.1874,64,60,56
-0.1635,0.1976,0.1839,131,134,134
0.0224,0.1904,0.1874,15,14,9
-0.1615,0.2004,0.1806,153,158,164
-0.1530,0.2090,0.1859,191,199,206
0.0187,0.2064,0.1881,0,0,0
0.0207,0.2013,0.1860,0,0,0
-0.1485,0.2139,0.1859,197,206,213
-0.0552,0.2146,0.1860,0,0,0
-0.0453,0.2177,0.1819,0,0,0
0.0149,0.2158,0.1887,0,0,0
-0.1430,0.2218,0.1836,79,82,81
-0.1324,0.2287,0.1895,54,53,51
-0.0722,0.2246,0.1873,4,5,2
-0.0378,0.2227,0.1834,0,0,0
0.0137,0.2234,0.1868,0,0,0
-0.1318,0.2318,0.1837,226,237,243
-0.1284,0.2345,0.1868,123,123,134
-0.0713,0.2365,0.1819,17,2,0
-0.0274,0.2330,0.1855,0,0,1
-0.0104,0.2381,0.1880,15,20,23
-0.0098,0.2394,0.1853,41,42,46
0.0120,0.2344,0.1812,0,0,0
-0.1209,0.2467,0.1839,190,201,223
-0.0706,0.2425,0.1861,8,15,9
-0.0051,0.2413,0.1858,14,13,11
0.0031,0.2437,0.1817,0,0,0
-0.1082,0.2573,0.1889,173,180,203
-0.0678,0.2564,0.1841,15,35,21
-0.0944,0.2611,0.1835,180,134,160
-0.0855,0.2650,0.1881,30,0,0
-0.0727,0.2672,0.1804,189,78,94
-0.3126,0.1111,0.1975,183,145,108
-0.3057,0.1141,0.1948,184,147,110
-0.2919,0.1153,0.1914,189,156,121
-0.2788,0.1155,0.1923,185,147,108
-0.2653,0.1142,0.1969,183,148,111
-0.2543,0.1134,0.1986,181,147,110
-0.2436,0.1170,0.1982,73,55,36
-0.2422,0.1233,0.1928,96,85,65
-0.2366,0.1256,0.1960,77,62,44
-0.2281,0.1282,0.1990,88,72,59
0.0359,0.1231,0.1938,48,1,1
0.0458,0.1214,0.1962,43,4,1
0.0578,0.1231,0.1947,182,160,137
0.0695,0.1242,0.1916,173,149,123
0.0708,0.1241,0.1904,153,135,115
-0.2342,0.1328,0.1923,79,71,68
-0.2268,0.1358,0.1947,117,114,114
-0.2169,0.1355,0.1990,102,93,84
0.0332,0.1329,0.1939,75,55,49
-0.2164,0.1427,0.1922,142,148,158
-0.2054,0.1442,0.1939,146,150,157
-0.1995,0.1453,0.1968,155,165,167
0.0316,0.1447,0.1956,59,49,39
-0.1925,0.1548,0.1941,132,138,144
-0.1869,0.1563,0.1971,138,142,148
0.0299,0.1516,0.1995,0,1,0
0.0314,0.1519,0.1939,121,104,86
-0.1808,0.1659,0.1950,43,40,39
-0.1771,0.1655,0.1972,98,97,96
0.0286,0.1647,0.1959,116,97,82
-0.1720,0.1716,0.1973,57,52,48
0.0253,0.1762,0.1946,40,35,32
-0.1678,0.1838,0.1924,82,79,76
-0.1571,0.1894,0.1994,74,58,43
0.0212,0.1900,0.1974,0,0,0
-0.1557,0.1949,0.1978,99,92,89
0.0193,0.1973,0.1981,0,0,0
0.0217,0.1960,0.1901,0,0,2
-0.1528,0.2021,0.1955,132,126,121
-0.1482,0.2087,0.1954,119,116,109
0.0172,0.2061,0.1933,0,0,0
-0.1430,0.2142,0.1971,113,104,99
-0.0656,0.2191,0.1944,9,4,1
-0.0598,0.2184,0.1956,5,4,0
-0.0477,0.2173,0.1943,0,0,0
-0.0369,0.2199,0.1984,0,0,0
0.0135,0.2128,0.1944,0,0,0
-0.1409,0.2223,0.1908,154,154,152
-0.1298,0.2286,0.1965,56,55,53
-0.0720,0.2257,0.1980,22,1,0
-0.0685,0.2214,0.1975,0,0,2
-0.0322,0.2231,0.1940,0,0,0
-0.0271,0.2284,0.1936,1,0,0
0.0087,0.2245,0.1986,0,0,0
-0.1271,0.2328,0.1933,62,56,54
-0.1181,0.2393,0.1991,95,91,79
-0.0732,0.2362,0.1941,25,4,3
-0.0215,0.2331,0.1938,0,0,0
-0.0168,0.2363,0.1922,3,3,6
-0.0033,0.2364,0.1953,18,17,17
0.0066,0.2349,0.1949,21,18,15
0.0113,0.2322,0.1905,0,0,0
-0.1166,0.2453,0.1941,90,77,79
-0.0736,0.2444,0.1976,14,17,12
-0.1101,0.2517,0.1973,124,115,116
-0.1055,0.2549,0.1984,113,108,115
-0.0944,0.2581,0.1968,165,170,189
-0.0888,0.2584,0.1952,160,15,36
-0.0726,0.2565,0.1961,43,42,38
-0.0988,0.2600,0.1908,153,174,191
-0.0744,0.2627,0.1923,46,17,14
-0.3116,0.1113,0.2060,185,146,109
-0.3091,0.1128,0.2025,186,148,111
-0.2937,0.1148,0.2034,188,154,117
-0.2752,0.1149,0.2021,183,148,108
-0.2669,0.1137,0.2069,181,146,108
-0.2503,0.1132,0.2053,179,150,110
-0.2435,0.1135,0.2063,184,150,113
-0.2369,0.1154,0.2061,138,112,85
-0.2231,0.1192,0.2086,92,71,50
-0.2232,0.1237,0.2045,54,33,25
-0.2147,0.1250,0.2080,38,17,12
-0.2044,0.1293,0.2097,27,6,1
0.0334,0.1226,0.2058,47,18,15
0.0481,0.1222,0.2048,51,8,0
0.0561,0.1236,0.2068,85,45,22
0.0677,0.1250,0.2081,108,77,55
0.0708,0.1250,0.2097,179,159,135
-0.2142,0.1330,0.2026,79,73,69
-0.2039,0.1365,0.2032,96,86,84
-0.1955,0.1375,0.2070,125,121,117
-0.1939,0.1445,0.2026,130,130,128
-0.1842,0.1454,0.2060,143,145,146
-0.1740,0.1474,0.2085,111,103,92
0.0275,0.1440,0.2065,7,0,0
-0.1612,0.1584,0.2079,106,91,79
-0.1578,0.1558,0.2099,103,90,73
0.0257,0.1554,0.2068,100,85,70
-0.1677,0.1637,0.2031,69,61,56
-0.1535,0.1653,0.2075,92,72,60
-0.1441,0.1675,0.2093,20,16,13
0.0236,0.1656,0.2067,26,21,16
-0.1641,0.1737,0.2005,78,77,72
-0.1562,0.1782,0.2032,128,127,125
-0.1470,0.1740,0.2074,88,72,59
0.0230,0.1725,0.2050,31,29,25
-0.1538,0.1828,0.2032,80,70,61
-0.1450,0.1855,0.2069,32,25,20
-0.1365,0.1812,0.2096,5,0,0
0.0216,0.1809,0.2027,0,0,0
-0.1528,0.1961,0.2004,75,68,50
-0.1447,0.1960,0.2051,84,76,65
0.0157,0.1943,0.2058,0,0,0
-0.1432,0.2048,0.2034,100,90,79
-0.1367,0.2014,0.2098,72,59,43
0.0098,0.2048,0.2078,0,0,0
0.0121,0.2047,0.2044,0,0,0
-0.1414,0.2126,0.2011,114,106,99
-0.1370,0.2138,0.2048,98,89,80
-0.0541,0.2191,0.2024,0,0,0
-0.0447,0.2188,0.2037,0,0,0
-0.0386,0.2197,0.2030,0,0,0
0.0090,0.2113,0.2054,0,0,0
-0.1320,0.2228,0.2028,119,112,103
-0.1256,0.2261,0.2065,92,81,73
-0.0715,0.2272,0.2024,25,1,0
-0.0631,0.2223,0.2062,1,0,0
-0.0580,0.2210,0.2077,0,1,0
-0.0341,0.2211,0.2060,10,15,16
-0.0258,0.2255,0.2072,13,15,17
-0.0124,0.2283,0.2097,64,56,45
0.0037,0.2257,0.2047,75,68,59
-0.1206,0.2339,0.2023,91,86,83
-0.1169,0.2370,0.2034,76,65,63
-0.0737,0.2346,0.2064,11,1,0
-0.0142,0.2334,0.2021,15,22,23
-0.0059,0.2323,0.2072,26,23,19
0.0020,0.2337,0.2023,1,0,0
-0.1107,0.2431,0.2046,117,115,116
-0.1067,0.2452,0.2059,102,97,101
-0.0861,0.2447,0.2089,28,0,0
-0.0774,0.2424,0.2058,0,0,0
-0.1072,0.2514,0.2008,116,115,123
-0.0933,0.2527,0.2046,92,86,91
-0.0859,0.2536,0.2034,87,17,20
-0.0772,0.2551,0.2004,55,0,0
-0.3113,0.1118,0.2137,184,146,108
-0.3077,0.1131,0.2148,188,149,113
-0.2985,0.1139,0.2164,186,152,116
-0.2856,0.1148,0.2163,186,150,114
-0.2754,0.1141,0.2140,184,149,112
-0.2672,0.1133,0.2119,183,148,108
-0.2552,0.1129,0.2132,183,150,113
-0.2447,0.1122,0.2146,176,144,108
-0.2364,0.1121,0.2143,172,138,104
-0.2263,0.1136,0.2145,96,74,52
-0.2136,0.1171,0.2158,116,94,71
-0.2071,0.1216,0.2149,72,49,35
-0.1956,0.1234,0.2175,50,26,15
-0.1882,0.1297,0.2155,45,20,15
-0.1774,0.1285,0.2199,36,11,4
0.0252,0.1236,0.2185,40,0,0
0.0346,0.1212,0.2174,47,13,1
0.0466,0.1223,0.2136,59,18,2
0.0529,0.1235,0.2184,69,27,0
0.0690,0.1250,0.2164,181,160,138
-0.1920,0.1312,0.2132,32,9,3
-0.1854,0.1302,0.2161,62,31,29
-0.1775,0.1364,0.2145,85,65,51
-0.1696,0.1378,0.2164,107,89,69
0.0243,0.1338,0.2136,78,61,49
-0.1758,0.1411,0.2118,104,85,68
-0.1619,0.1451,0.2139,104,84,66
-0.1542,0.1461,0.2155,105,86,65
-0.1440,0.1437,0.2197,103,82,61
-0.1364,0.1481,0.2194,93,76,56
0.0225,0.1435,0.2132,55,43,33
-0.1615,0.1511,0.2107,114,103,89
-0.1529,0.1528,0.2125,96,78,60
-0.1482,0.1550,0.2129,90,72,52
-0.1362,0.1562,0.2156,87,74,59
0.0181,0.1530,0.2164,2,1,0
0.0228,0.1550,0.2105,109,88,69
-0.1419,0.1642,0.2110,58,53,43
-0.1324,0.1654,0.2126,23,19,13
-0.1265,0.1635,0.2164,98,78,60
0.0144,0.1646,0.2174,98,80,62
-0.1327,0.1741,0.2113,51,41,30
-0.1252,0.1747,0.2143,61,58,40
-0.1195,0.1760,0.2189,6,3,0
0.0074,0.1794,0.2183,73,60,44
0.0132,0.1761,0.2147,42,34,26
-0.1313,0.1852,0.2113,50,41,32
-0.1239,0.1846,0.2159,41,36,26
-0.1188,0.1802,0.2191,3,0,0
0.0073,0.1833,0.2173,0,1,0
0.0119,0.1860,0.2137,0,0,0
-0.1326,0.1958,0.2122,61,49,37
-0.1257,0.1939,0.2166,8,4,0
0.0059,0.1951,0.2155,1,0,0
0.0113,0.1925,0.2121,0,0,0
-0.1324,0.2038,0.2126,88,73,61
-0.1283,0.2050,0.2153,37,31,23
-0.0020,0.2079,0.2170,61,52,43
0.0049,0.2057,0.2135,42,36,31
-0.1301,0.2148,0.2105,72,62,52
-0.1276,0.2144,0.2127,55,52,50
-0.1191,0.2152,0.2195,0,0,2
-0.0120,0.2192,0.2190,106,94,78
-0.0019,0.2150,0.2151,101,89,73
0.0021,0.2145,0.2123,98,86,72
-0.1214,0.2222,0.2151,58,55,50
-0.1151,0.2282,0.2146,0,0,0
-0.0883,0.2288,0.2192,69,55,42
-0.0759,0.2267,0.2166,28,19,13
-0.0637,0.2238,0.2161,16,15,15
-0.0549,0.2218,0.2167,4,8,10
-0.0488,0.2212,0.2179,5,8,9
-0.0336,0.2214,0.2146,7,12,15
-0.0249,0.2227,0.2170,89,79,65
-0.0134,0.2273,0.2123,69,62,50
-0.0064,0.2252,0.2120,82,73,61
-0.1118,0.2344,0.2110,65,65,69
-0.1058,0.2340,0.2154,30,26,26
-0.0944,0.2368,0.2150,18,12,9
-0.0878,0.2346,0.2146,12,3,3
-0.0781,0.2301,0.2154,18,2,3
-0.0103,0.2304,0.2102,22,19,12
-0.3118,0.1113,0.2265,180,143,106
-0.3064,0.1130,0.2254,181,145,107
-0.2938,0.1145,0.2221,183,149,112
-0.2813,0.1148,0.2256,180,146,108
-0.2709,0.1135,0.2287,172,138,100
-0.2668,0.1132,0.2235,179,145,107
-0.2554,0.1123,0.2233,179,146,111
-0.2446,0.1120,0.2241,181,149,114
-0.2339,0.1112,0.2253,167,136,104
-0.2221,0.1114,0.2251,149,121,91
-0.2142,0.1119,0.2258,121,94,67
-0.2050,0.1127,0.2262,104,78,54
-0.1939,0.1151,0.2259,88,66,41
-0.1835,0.1186,0.2259,91,71,44
-0.1843,0.1245,0.2210,65,46,30
-0.1752,0.1245,0.2234,51,31,15
-0.1603,0.1212,0.2291,89,63,30
-0.1562,0.1269,0.2266,94,73,46
-0.1433,0.1263,0.2293,85,60,29
-0.1276,0.1280,0.2297,73,52,25
-0.1181,0.1293,0.2294,75,53,29
0.0162,0.1233,0.2281,52,28,20
0.0211,0.1241,0.2237,51,1,1
0.0306,0.1215,0.2288,43,6,0
0.0448,0.1229,0.2269,70,32,1
0.0655,0.1248,0.2237,145,116,87
-0.1653,0.1320,0.2213,75,57,41
-0.1558,0.1359,0.2219,100,82,59
-0.1440,0.1351,0.2245,92,70,43
-0.1392,0.1395,0.2236,86,71,52
-0.1271,0.1346,0.2273,74,53,25
-0.1126,0.1331,0.2290,50,38,27
-0.1076,0.1387,0.2285,43,33,24
-0.0934,0.1361,0.2294,6,0,0
0.0078,0.1369,0.2285,76,50,39
0.0144,0.1346,0.2240,90,54,41
-0.1342,0.1416,0.2233,103,82,61
-0.1261,0.1447,0.2239,87,66,43
-0.1171,0.1467,0.2254,95,71,46
-0.1052,0.1486,0.2269,100,76,50
-0.0956,0.1427,0.2286,51,37,24
-0.0806,0.1449,0.2298,50,35,26
-0.0756,0.1481,0.2299,87,65,44
0.0053,0.1444,0.2272,24,0,0
0.0124,0.1445,0.2236,39,16,12
-0.1257,0.1533,0.2205,101,80,59
-0.1146,0.1558,0.2231,95,77,51
-0.1026,0.1558,0.2257,101,78,53
-0.0975,0.1568,0.2265,96,74,47
-0.0881,0.1526,0.2284,96,72,48
-0.0058,0.1596,0.2277,105,83,61
0.0059,0.1545,0.2251,58,37,26
-0.1131,0.1665,0.2222,88,68,49
-0.1059,0.1657,0.2245,84,71,49
-0.0975,0.1646,0.2264,67,53,30
-0.0827,0.1627,0.2284,81,61,43
-0.0737,0.1639,0.2294,58,44,27
-0.0446,0.1658,0.2294,89,69,49
-0.0389,0.1611,0.2295,98,76,53
-0.0272,0.1665,0.2297,102,80,57
-0.0192,0.1671,0.2293,102,81,60
0.0018,0.1680,0.2240,103,85,65
-0.1019,0.1762,0.2256,41,36,24
-0.0998,0.1767,0.2260,87,66,39
-0.0850,0.1721,0.2282,0,0,0
-0.0559,0.1799,0.2298,6,0,0
-0.0448,0.1763,0.2293,6,1,0
-0.0336,0.1744,0.2290,84,68,43
-0.0229,0.1758,0.2288,107,87,66
-0.0030,0.1763,0.2243,98,81,62
0.0024,0.1737,0.2227,104,87,67
-0.1157,0.1843,0.2207,90,77,58
-0.1048,0.1843,0.2253,47,38,28
-0.0942,0.1842,0.2282,91,70,49
-0.0872,0.1876,0.2297,2,0,0
-0.0579,0.1876,0.2296,25,19,14
-0.0297,0.1857,0.2282,99,80,63
-0.0146,0.1870,0.2260,109,88,69
-0.0072,0.1861,0.2236,91,73,56
-0.1141,0.1946,0.2218,68,65,49
-0.1057,0.1958,0.2260,52,43,35
-0.0950,0.1926,0.2296,84,68,43
-0.0545,0.1939,0.2297,25,20,17
-0.0463,0.1934,0.2290,44,35,25
-0.0308,0.1903,0.2283,88,71,53
-0.0217,0.1942,0.2264,102,85,65
-0.0135,0.1969,0.2241,64,53,40
-0.0093,0.1975,0.2226,49,39,30
-0.1130,0.2071,0.2235,14,12,12
-0.1055,0.2049,0.2274,100,98,91
-0.0536,0.2059,0.2297,91,74,56
-0.0444,0.2017,0.2287,94,79,60
-0.0347,0.2098,0.2264,89,76,57
-0.0237,0.2057,0.2251,105,90,71
-0.0126,0.2016,0.2230,75,61,47
-0.0098,0.2069,0.2212,66,56,46
-0.1122,0.2129,0.2238,0,0,0
-0.1074,0.2150,0.2257,17,15,13
-0.0948,0.2186,0.2291,0,0,0
-0.0727,0.2187,0.2274,78,62,47
-0.0642,0.2159,0.2276,84,68,53
-0.0548,0.2153,0.2258,79,68,52
-0.0410,0.2153,0.2250,64,57,42
-0.0321,0.2126,0.2251,96,83,66
-0.0265,0.2134,0.2240,98,85,66
-0.0175,0.2139,0.2222,80,70,55
-0.1022,0.2224,0.2256,17,17,18
-0.0972,0.2238,0.2257,48,39,31
-0.0859,0.2216,0.2261,68,52,37
-0.0727,0.2202,0.2259,81,65,52
-0.0647,0.2221,0.2221,0,0,0
-0.0524,0.2209,0.2208,0,0,2
-0.0944,0.2306,0.2208,1,0,0
-0.3115,0.1110,0.2347,178,141,105
-0.3005,0.1148,0.2394,177,145,107
-0.2927,0.1155,0.2320,185,151,114
-0.2842,0.1157,0.2331,179,145,108
-0.2643,0.1131,0.2364,178,147,109
-0.2473,0.1128,0.2352,178,147,112
-0.2349,0.1120,0.2336,170,140,107
-0.2251,0.1118,0.2362,169,140,107
-0.2183,0.1112,0.2326,164,135,105
-0.2018,0.1110,0.2373,147,121,92
-0.1927,0.1113,0.2344,111,84,56
-0.1879,0.1121,0.2346,73,47,18
-0.1763,0.1131,0.2351,70,43,15
-0.1642,0.1156,0.2330,79,53,20
-0.1597,0.1151,0.2342,27,2,0
-0.1480,0.1169,0.2335,72,46,20
-0.1373,0.1171,0.2349,61,37,13
-0.1256,0.1169,0.2353,48,23,10
-0.1134,0.1153,0.2375,42,16,3
-0.0991,0.1153,0.2379,52,28,2
-0.0855,0.1167,0.2382,47,23,6
-0.0724,0.1183,0.2379,39,2,0
-0.0673,0.1175,0.2388,60,36,26
-0.1372,0.1235,0.2314,84,60,32
-0.1127,0.1223,0.2323,57,38,17
-0.1023,0.1218,0.2334,33,24,14
-0.0963,0.1235,0.2332,63,48,26
-0.0869,0.1254,0.2333,52,29,22
-0.0654,0.1293,0.2319,28,19,3
-0.0553,0.1246,0.2350,47,32,20
-0.0480,0.1277,0.2348,31,19,5
-0.0357,0.1277,0.2366,61,45,28
-0.0242,0.1286,0.2367,55,25,4
-0.0119,0.1249,0.2376,54,21,1
-0.0003,0.1233,0.2349,69,0,1
0.0032,0.1234,0.2350,46,11,1
0.0124,0.1224,0.2320,46,12,0
0.0209,0.1216,0.2398,56,19,0
0.0364,0.1225,0.2378,77,39,2
0.0450,0.1232,0.2338,77,38,2
0.0570,0.1243,0.2332,85,46,5
0.0673,0.1252,0.2346,120,87,53
-0.0856,0.1357,0.2300,3,0,0
-0.0754,0.1343,0.2304,13,8,5
-0.0650,0.1376,0.2302,2,0,0
-0.0556,0.1329,0.2316,22,16,9
-0.0352,0.1376,0.2328,1,0,0
-0.0249,0.1363,0.2333,60,44,31
-0.0162,0.1350,0.2337,70,53,40
-0.0084,0.1304,0.2342,53,0,2
-0.0635,0.1475,0.2303,0,0,0
-0.0508,0.1432,0.2310,0,0,0
-0.0442,0.1466,0.2310,41,29,21
-0.0340,0.1448,0.2318,8,0,0
-0.0226,0.1409,0.2325,90,64,47
-0.0196,0.1493,0.2313,14,2,2
-0.0040,0.1418,0.2311,91,74,54
-0.0722,0.1501,0.2300,10,0,0
-0.0623,0.1516,0.2304,96,72,48
-0.0576,0.1585,0.2309,97,75,52
-0.0443,0.1518,0.2307,96,73,53
-0.0287,0.1559,0.2305,97,75,52
-0.0102,0.1513,0.2303,22,1,0
-0.0653,0.1631,0.2302,100,78,55
-0.0561,0.1655,0.2309,65,48,34
-0.0488,0.1617,0.2303,100,78,57
-0.0679,0.1747,0.2302,27,19,13
-0.0555,0.1747,0.2303,4,0,0
-0.0712,0.1875,0.2305,57,41,25
-0.0638,0.1876,0.2306,91,68,50
-0.0592,0.1815,0.2303,64,48,33
-0.0909,0.1992,0.2315,82,69,52
-0.0844,0.1931,0.2312,23,19,13
-0.0753,0.1915,0.2305,53,45,33
-0.0620,0.1909,0.2306,0,0,0
-0.0570,0.1965,0.2306,18,14,12
-0.0952,0.2071,0.2325,1,0,0
-0.0887,0.2007,0.2321,33,28,22
-0.0763,0.2069,0.2335,1,0,2
-0.0664,0.2028,0.2321,14,10,7
-0.0562,0.2030,0.2307,82,67,51
-0.0857,0.2153,0.2314,15,10,5
-0.0726,0.2129,0.2319,62,50,38
-0.0669,0.2131,0.2307,85,69,53
-0.3125,0.1106,0.2417,174,139,102
-0.3057,0.1132,0.2450,173,139,102
-0.2920,0.1150,0.2442,180,146,110
-0.2808,0.1158,0.2490,178,144,106
-0.2761,0.1151,0.2430,177,144,106
-0.2658,0.1133,0.2464,179,146,108
-0.2560,0.1130,0.2428,180,149,113
-0.2461,0.1130,0.2487,179,149,113
-0.2357,0.1130,0.2476,176,147,113
-0.2234,0.1126,0.2450,172,143,110
-0.2139,0.1120,0.2436,167,139,108
-0.2006,0.1118,0.2461,166,140,113
-0.1925,0.1115,0.2449,156,130,103
-0.1832,0.1119,0.2484,183,159,136
-0.1724,0.1118,0.2431,136,109,80
-0.1642,0.1122,0.2442,135,107,79
-0.1554,0.1122,0.2468,125,98,70
-0.1464,0.1131,0.2420,43,23,4
-0.1346,0.1142,0.2409,49,23,0
-0.1161,0.1138,0.2482,61,32,4
-0.1051,0.1143,0.2448,55,28,1
-0.0955,0.1148,0.2468,58,31,3
-0.0862,0.1155,0.2491,52,25,0
-0.0761,0.1162,0.2429,48,20,0
-0.0652,0.1163,0.2419,53,22,2
-0.0569,0.1170,0.2455,56,28,4
-0.0458,0.1191,0.2430,44,12,3
-0.0346,0.1186,0.2473,63,32,6
-0.0261,0.1197,0.2431,47,21,6
-0.0153,0.1198,0.2469,63,33,5
-0.0384,0.1213,0.2401,44,3,0
-0.0250,0.1209,0.2422,58,29,7
-0.0133,0.1210,0.2432,63,32,6
0.0064,0.1211,0.2468,67,32,2
0.0163,0.1216,0.2439,66,30,6
0.0285,0.1220,0.2467,80,44,10
0.0361,0.1227,0.2446,84,47,13
0.0444,0.1238,0.2457,87,50,13
0.0661,0.1253,0.2453,92,54,15
0.0702,0.1259,0.2406,94,59,19
-0.3125,0.1107,0.2533,171,137,99
-0.3070,0.1128,0.2575,171,137,101
-0.2953,0.1150,0.2575,165,131,94
-0.2861,0.1154,0.2539,172,138,100
-0.2754,0.1154,0.2544,176,143,105
-0.2643,0.1132,0.2510,181,149,111
-0.2535,0.1130,0.2518,182,152,116
-0.2451,0.1130,0.2584,178,148,112
-0.2277,0.1130,0.2539,172,143,109
-0.2162,0.1130,0.2571,175,146,114
-0.2017,0.1124,0.2554,173,147,119
-0.1910,0.1120,0.2525,173,147,121
-0.1861,0.1121,0.2519,191,166,143
-0.1778,0.1121,0.2534,187,165,142
-0.1677,0.1128,0.2547,185,159,138
-0.1543,0.1129,0.2539,188,165,141
-0.1435,0.1132,0.2554,177,153,127
-0.1394,0.1132,0.2526,78,47,16
-0.1243,0.1137,0.2535,73,41,8
-0.1139,0.1141,0.2593,123,97,72
-0.1071,0.1145,0.2548,69,40,8
-0.0986,0.1154,0.2591,64,35,3
-0.0850,0.1158,0.2574,63,34,4
-0.0789,0.1161,0.2501,65,38,9
-0.0661,0.1173,0.2555,68,39,11
-0.0527,0.1175,0.2568,63,36,7
-0.0313,0.1185,0.2523,66,36,10
-0.0245,0.1197,0.2582,70,40,14
-0.0134,0.1200,0.2522,74,43,15
-0.0090,0.1203,0.2575,80,49,18
0.0138,0.1220,0.2563,84,51,18
0.0277,0.1227,0.2581,90,56,24
0.0325,0.1231,0.2562,89,53,18
0.0480,0.1246,0.2568,99,65,27
0.0647,0.1250,0.2562,97,60,21
-0.3128,0.1103,0.2651,127,102,74
-0.2952,0.1150,0.2639,176,142,106
-0.2854,0.1151,0.2642,176,142,106
-0.2761,0.1147,0.2672,177,144,106
-0.2629,0.1131,0.2622,176,142,104
-0.2546,0.1125,0.2663,177,145,110
-0.2438,0.1130,0.2658,179,146,110
-0.2248,0.1130,0.2642,181,152,117
-0.2155,0.1130,0.2651,178,149,115
-0.2048,0.1130,0.2630,181,155,124
-0.1939,0.1123,0.2636,182,156,129
-0.1848,0.1128,0.2655,184,162,136
-0.1705,0.1132,0.2669,192,172,147
-0.1690,0.1130,0.2640,196,174,151
-0.1569,0.1140,0.2685,193,173,150
-0.1467,0.1137,0.2625,192,169,145
-0.1247,0.1144,0.2659,184,155,129
-0.1164,0.1143,0.2614,82,48,20
-0.1061,0.1148,0.2653,71,42,10
-0.0973,0.1156,0.2677,73,44,12
-0.0863,0.1165,0.2664,73,43,13
-0.0799,0.1161,0.2606,62,32,8
-0.0531,0.1182,0.2657,72,41,15
-0.0429,0.1181,0.2608,68,37,12
-0.0236,0.1202,0.2677,81,50,22
-0.0045,0.1208,0.2636,83,51,20
0.0088,0.1223,0.2637,98,65,32
0.0261,0.1229,0.2634,98,63,31
0.0385,0.1238,0.2615,99,65,30
0.0522,0.1250,0.2614,97,58,19
0.0636,0.1250,0.2637,100,65,27
0.0709,0.1250,0.2638,102,67,29
-0.3126,0.1106,0.2730,170,138,104
-0.3063,0.1137,0.2755,173,139,102
-0.2937,0.1159,0.2763,173,139,103
-0.2810,0.1150,0.2750,176,142,105
-0.2716,0.1142,0.2765,175,141,103
-0.2636,0.1132,0.2722,176,143,107
-0.2550,0.1129,0.2785,179,149,113
-0.2320,0.1130,0.2777,179,149,111
-0.2265,0.1130,0.2712,178,148,113
-0.2151,0.1130,0.2716,180,150,116
-0.2076,0.1135,0.2783,181,149,116
-0.1988,0.1135,0.2785,191,162,132
-0.1780,0.1140,0.2772,196,176,158
-0.1611,0.1138,0.2739,195,177,157
-0.1556,0.1141,0.2775,207,188,171
-0.1433,0.1144,0.2758,195,177,153
-0.1347,0.1147,0.2751,197,175,149
-0.1167,0.1151,0.2731,183,154,124
-0.1076,0.1156,0.2765,107,78,46
-0.0978,0.1163,0.2777,100,70,36
-0.0865,0.1167,0.2750,73,43,14
-0.0799,0.1172,0.2776,80,51,21
-0.0599,0.1188,0.2798,75,46,16
-0.0406,0.1197,0.2760,82,53,22
-0.0367,0.1198,0.2733,71,41,13
-0.0261,0.1206,0.2785,85,55,25
-0.0095,0.1214,0.2764,87,56,25
0.0028,0.1220,0.2704,90,59,28
0.0160,0.1230,0.2767,98,66,33
0.0277,0.1235,0.2773,101,71,37
0.0365,0.1239,0.2741,108,74,42
0.0441,0.1243,0.2755,151,115,74
0.0631,0.1249,0.2739,140,106,68
0.0702,0.1250,0.2740,126,91,59
-0.3133,0.1103,0.2857,171,139,102
-0.3057,0.1131,0.2872,172,139,101
-0.2944,0.1153,0.2836,174,140,105
-0.2823,0.1143,0.2876,172,137,101
-0.2705,0.1140,0.2811,181,143,107
-0.2647,0.1135,0.2835,177,142,106
-0.2512,0.1130,0.2878,182,147,111
-0.2445,0.1130,0.2819,179,145,108
-0.2384,0.1130,0.2803,177,145,107
-0.2234,0.1134,0.2850,180,150,111
-0.2068,0.1140,0.2886,182,151,117
-0.1942,0.1140,0.2854,190,166,140
-0.1866,0.1138,0.2821,191,168,144
-0.1778,0.1143,0.2893,203,184,162
-0.1626,0.1140,0.2826,204,188,172
-0.1482,0.1149,0.2868,193,173,149
-0.1339,0.1154,0.2870,194,174,150
-0.1269,0.1156,0.2857,191,168,141
-0.1169,0.1157,0.2865,184,154,128
-0.0948,0.1169,0.2845,110,80,49
-0.0832,0.1173,0.2864,106,77,47
-0.0729,0.1179,0.2828,79,48,18
-0.0625,0.1188,0.2854,82,51,20
-0.0521,0.1192,0.2825,86,55,24
-0.0322,0.1206,0.2866,92,58,33
-0.0135,0.1216,0.2820,95,62,31
-0.0033,0.1229,0.2875,96,63,32
0.0076,0.1230,0.2848,94,64,32
0.0145,0.1231,0.2841,127,95,56
0.0239,0.1239,0.2848,102,72,36
0.0474,0.1244,0.2803,173,138,100
0.0683,0.1242,0.2892,0,0,0
0.0709,0.1233,0.2878,83,65,47
-0.3135,0.1101,0.2958,173,140,103
-0.3058,0.1123,0.2934,174,140,104
-0.2933,0.1157,0.2972,173,138,102
-0.2821,0.1142,0.2971,174,137,101
-0.2727,0.1147,0.2964,174,138,102
-0.2653,0.1136,0.2959,179,146,109
-0.2550,0.1130,0.2951,179,144,108
-0.2475,0.1130,0.2978,184,150,113
-0.2341,0.1134,0.2927,182,149,113
-0.2226,0.1140,0.2954,180,147,114
-0.2084,0.1140,0.2959,184,151,120
-0.1943,0.1140,0.2959,185,152,119
-0.1859,0.1143,0.2993,196,174,150
-0.1666,0.1146,0.2931,211,195,179
-0.1529,0.1150,0.2970,211,196,181
-0.1462,0.1152,0.2942,206,188,170
-0.1378,0.1154,0.2936,199,182,162
-0.1282,0.1159,0.2950,199,176,158
-0.1161,0.1161,0.2916,181,154,124
-0.1098,0.1166,0.2972,181,150,119
-0.0919,0.1173,0.2949,136,107,76
-0.0896,0.1175,0.2947,146,111,83
-0.0735,0.1190,0.2961,150,116,88
-0.0648,0.1190,0.2962,90,59,28
