ply
format ascii 1.0
comment PCL generated
element vertex 628
property float x
property float y
property float z
property uchar red
property uchar green
property uchar blue
property float nx
property float ny
property float nz
property float curvature
element camera 0
property float view_px
property float view_py
property float view_pz
property float x_axisx
property float x_axisy
property float x_axisz
property float y_axisx
property float y_axisy
property float y_axisz
property float z_axisx
property float z_axisy
property float z_axisz
property float focal
property float scalex
property float scaley
property float centerx
property float centery
property int viewportx
property int viewporty
property float k1
property float k2
end_header
0.079711996 0.19556157 0.22117083 93 58 20 0.012939329 0.98337084 -0.18114755 0
0.084426478 0.19638422 0.22847897 108 67 26 0.14774613 0.98418683 -0.097711079 0
0.076073967 0.2001217 0.2228727 73 47 14 0.8078621 0.53631151 -0.24439499 0
-0.30046228 0.217591 0.2225223 101 90 78 -0.94292569 -0.31930462 0.09452863 0
-0.29938996 0.21408445 0.22562647 121 109 95 -0.97857404 -0.1637017 0.12487826 0
0.071108259 0.21498278 0.22671229 71 48 28 0.95339066 0.18876879 -0.23539865 0
-0.30213696 0.22680639 0.22510615 80 74 62 -0.97995824 -0.1781718 0.089088552 0
-0.30319929 0.23783335 0.22745872 58 53 50 -0.97411054 -0.14050001 0.17711124 0
0.070926636 0.23113425 0.22566307 5 1 1 0.98204756 -0.13338412 -0.13338393 0
-0.30619228 0.24933371 0.22271562 44 40 37 -0.96565431 -0.19153503 0.17557375 0
0.072353408 0.24398695 0.22395025 6 0 0 0.97995794 -0.089086875 -0.17817408 0
-0.31061649 0.25984955 0.22962564 36 34 37 -0.94868517 -0.31622213 0 0
-0.30741429 0.25424132 0.22742869 40 36 37 -0.89177543 -0.45221621 0.015401486 0
0.073232442 0.25311199 0.22450654 3 0 0 0.98989129 -0.044632234 -0.13462248 0
-0.31074965 0.26200134 0.2276895 29 28 31 -0.97014296 0.24253394 0 0
-0.30846357 0.26904655 0.22276115 26 25 30 -0.96107483 0.26211038 0.087369256 0
0.076759003 0.26493609 0.22293711 0 0 0 0.75596523 -0.65042996 -0.073874578 0
0.080806807 0.26948351 0.22907367 0 0 0 0.87392414 -0.46893513 -0.12789239 0
-0.30576459 0.27303335 0.22740178 29 28 32 -0.75614178 0.6541633 0.01788746 0
-0.29785225 0.27967504 0.22967194 34 35 39 -0.62070245 0.77588153 0.1128553 0
0.080912255 0.27295363 0.22456472 0 0 0 0.97481167 0.19807245 -0.10251606 0
-0.29368591 0.2839227 0.22772552 48 51 56 -0.72164309 0.68476188 0.10164811 0
0.072366312 0.2829951 0.22497213 0 0 0 0.83966655 0.5378952 -0.075026125 0
-0.2835457 0.29340309 0.225154 80 89 99 -0.528355 0.84700215 0.05855253 0
-0.27361858 0.29699999 0.22584824 79 88 97 0 1 0 0
-0.26444611 0.29699999 0.22486703 80 89 98 0 1 0 0
-0.25705314 0.2967464 0.22744811 77 86 93 0.071429983 0.99209493 -0.10317666 0
-0.24367477 0.296 0.22177953 84 93 100 0 1 0 0
-0.23117235 0.296 0.22498573 95 104 113 0 1 0 0
-0.22573376 0.296 0.22241269 102 111 120 0 1 0 0
-0.21990591 0.29575616 0.22227782 97 106 113 0.087651528 0.99602371 -0.015936686 0
-0.20349725 0.29512513 0.22341546 99 108 115 -0.0079762843 0.99900544 -0.04386944 0
-0.193306 0.29512534 0.22760844 116 123 133 0.035786867 0.9980216 -0.05169211 0
-0.18305324 0.29499999 0.22430664 176 89 97 0 1 0 0
-0.1769799 0.29499999 0.22491525 193 91 101 0 1 0 0
-0.16044477 0.29500002 0.22376971 210 89 98 0 1 0 0
-0.15193793 0.29499999 0.22730249 118 122 133 0 1 0 0
-0.14738044 0.29462376 0.22665727 115 122 132 0.071429975 0.99209499 -0.10317656 0
-0.13607101 0.29440543 0.2264434 115 121 129 -0.014094031 0.99549055 -0.093807362 0
-0.12238361 0.29414523 0.22210258 118 122 131 0.031091724 0.99392152 -0.10560917 0
-0.11159563 0.294 0.22060113 119 123 132 0 1 0 0
-0.10937055 0.294 0.22401801 120 123 132 0 1 0 0
-0.091602892 0.294 0.22148028 122 122 130 0 1 0 0
-0.086857781 0.29400003 0.22543946 119 121 132 0 1 0 0
-0.066946238 0.2948904 0.22264554 213 92 99 -0.08764898 0.99602395 0.01593616 0
-0.054159299 0.29500002 0.22639181 211 90 97 0 1 0 0
-0.044894863 0.29499999 0.22740465 159 102 114 0 1 0 0
-0.035777051 0.29499999 0.22381474 104 111 121 0 1 0 0
-0.021660725 0.29516974 0.22966944 100 109 118 -0.051897183 0.99800593 -0.035928827 0
-0.012597014 0.29564813 0.2297087 103 111 122 -0.087651566 0.99602371 0.01593665 0
-0.009262573 0.29600611 0.22455306 98 106 117 -0.15601067 0.98773801 0.0058509731 0
0.0054628621 0.29875085 0.22301397 102 111 126 -0.27365234 0.96180975 0.0060356082 0
0.068169214 0.29362425 0.22254062 0 0 0 0.91862571 0.39512885 0 0
0.019147435 0.3026194 0.22093292 104 116 132 -0.26414844 0.96444732 -0.0081899529 0
0.032879855 0.30492675 0.22558545 104 119 135 -0.051702902 0.99846745 -0.019736135 0
0.042943798 0.30716601 0.22360292 90 109 131 -0.25457227 0.965832 0.048596501 0
0.06051496 0.30043054 0.22620809 125 114 108 0.62881857 0.7761991 -0.045851123 0
-0.33874556 0.17866728 0.23558265 236 204 162 -0.80392468 0.57711482 0.14367855 0
-0.33326542 0.18408827 0.23405886 233 202 157 -0.2978324 0.95308095 0.054151583 0
-0.32696667 0.18526199 0.23566681 233 200 155 0.13862118 0.99014753 0.019802894 0
-0.31094044 0.184 0.23463173 231 197 150 0 1 0 0
-0.3077749 0.18535642 0.23697425 198 168 132 -0.24552214 0.96366334 0.10522348 0
-0.29766187 0.19600452 0.23525734 131 115 99 -0.98621988 0.034006901 0.16190714 0
0.082130298 0.19768961 0.23161551 66 34 0 0.31606972 0.8217808 -0.47410575 0
-0.29685298 0.20996766 0.23853284 128 116 102 -0.97303265 -0.1946042 0.12384146 0
0.078764006 0.20509899 0.23601478 81 59 35 0.82815945 0.43379718 -0.35492533 0
0.081871115 0.202281 0.23795192 90 59 30 0.72464609 0.63438344 -0.26915759 0
-0.29818568 0.21494639 0.23600525 111 99 87 -0.9632296 -0.23219636 0.13517979 0
0.073391862 0.21858928 0.2365776 83 57 34 0.93979335 0 -0.34174332 0
-0.30087683 0.22993639 0.23614568 64 57 51 -0.97995818 -0.089088671 0.17817204 0
-0.29989982 0.2225596 0.23461595 75 66 57 -0.96565479 -0.19153491 0.17557146 0
0.072731778 0.2260897 0.23722075 50 30 19 0.98386991 2.04359e-07 -0.17888527 0
-0.30158439 0.23396385 0.23426783 52 48 45 -0.97995794 -0.089086004 0.17817464 0
0.073479936 0.23755959 0.2367197 8 0 0 0.99183655 -0.090167142 -0.09016721 0
-0.30350471 0.24523994 0.23297003 42 40 36 -0.96557397 -0.18354034 0.18433604 0
-0.30452433 0.25151712 0.23728386 41 37 38 -0.83029354 -0.53610736 0.15232037 0
0.074227318 0.25584361 0.23501575 2 0 0 0.99051768 -0.097146027 -0.097146153 0
-0.3107354 0.26090312 0.23352279 36 32 31 -0.93638438 -0.34049675 0.08512482 0
-0.30898973 0.26556352 0.23622195 27 26 30 -0.93830991 0.33045056 0.10186713 0
0.07786455 0.26450554 0.23562463 0 0 0 0.77986789 -0.62155044 -0.074035391 0
-0.30490875 0.27325231 0.23348925 26 26 31 -0.80558556 0.58343798 0.10311218 0
-0.29975462 0.27701896 0.23728265 29 30 32 -0.60536128 0.79404604 0.055033818 0
0.082462087 0.27356023 0.23545556 0 0 0 0.92854726 0.32640201 -0.17680959 0
-0.28824902 0.28969264 0.23189656 77 86 95 -0.79259408 0.58878386 0.15851907 0
0.072362497 0.28457984 0.2345223 0 0 0 0.85493815 0.50615126 -0.11354132 0
-0.28177214 0.29328805 0.23686549 81 89 100 -0.5281657 0.84369379 0.096030369 0
-0.27725744 0.29655349 0.23300701 84 94 104 -0.52816558 0.84369385 0.096030235 0
-0.26623628 0.29699999 0.23780902 83 91 99 0 1 0 0
-0.25360662 0.29699999 0.23925704 86 93 103 0 1 0 0
-0.24692915 0.29642206 0.2347694 90 98 107 0.087648913 0.99602395 -0.015936201 0
-0.23451862 0.296 0.23739436 92 99 109 0 1 0 0
-0.2264272 0.296 0.23270392 96 104 112 0 1 0 0
-0.21201015 0.29595414 0.23362052 97 109 116 0.023852628 0.99912161 -0.034453772 0
-0.20252317 0.29583675 0.23456421 105 117 122 -1.2155527e-08 1 -6.7322922e-08 0
-0.18964827 0.29531556 0.23615956 194 75 94 0.08765164 0.99602377 -0.015936706 0
-0.17318165 0.29499999 0.23785934 209 82 91 0 1 0 0
-0.16436586 0.29499999 0.23419696 117 117 130 0 1 0 0
-0.15654084 0.29500002 0.23472755 111 122 130 0 1 0 0
-0.14407487 0.29499999 0.23582965 119 123 134 0 1 0 0
-0.1322896 0.29499999 0.2334061 117 124 132 0 1 0 0
-0.12961578 0.29499999 0.2365168 202 205 210 0 1 0 0
-0.11549421 0.29464069 0.23656647 124 129 138 0.061978433 0.99803847 -0.0088194003 0
-0.10491601 0.29406625 0.23769329 169 173 179 -0.0079759844 0.9990055 -0.043868151 0
-0.095857963 0.294 0.23225868 169 172 177 0 1 0 0
-0.08424177 0.29402044 0.23350839 145 149 156 -0.0058261491 0.99946946 -0.032043755 0
-0.072396897 0.29425138 0.23260579 122 125 134 -0.08764898 0.99602395 0.015936162 0
-0.063799672 0.29482293 0.23331153 165 105 116 -0.043868113 0.9990055 0.0079760337 0
-0.054708663 0.29499999 0.23618221 211 87 95 0 1 0 0
-0.040391956 0.29499999 0.23594949 104 113 120 0 1 0 0
-0.033268508 0.29499999 0.23011801 107 111 122 0 1 0 0
-0.027647469 0.29499999 0.23286982 101 110 117 0 1 0 0
-0.014664877 0.29590154 0.23989132 103 109 121 -0.051897228 0.99800593 -0.035928819 0
-0.0013073536 0.29746166 0.23615484 108 117 132 -0.18827158 0.98058069 -0.054911386 0
0.0057748132 0.29894358 0.23361269 110 119 134 -0.29333067 0.95542318 -0.033522706 0
0.064886898 0.29724661 0.23469612 32 29 27 0.70920938 0.70043933 -0.080042183 0
0.017648907 0.3025651 0.23570585 111 124 139 -0.28317288 0.95783246 -0.048683621 0
0.023209827 0.30436847 0.2368314 115 128 145 -0.18141563 0.97594112 -0.12094351 0
0.033391211 0.30553994 0.23400266 119 136 156 -0.097487554 0.99433905 -0.04226112 0
0.056205977 0.30353141 0.23258494 81 82 89 0.46523955 0.88113385 -0.084589027 0
-0.34171554 0.16361503 0.24823885 149 135 106 -0.97712749 0.14610319 0.15451798 0
-0.34099099 0.1745653 0.24486588 232 200 156 -0.96277416 0.23722705 0.12957312 0
-0.33890221 0.17741406 0.24409023 229 196 153 -0.74659163 0.66514409 0.013576476 0
-0.3326416 0.18423878 0.24457906 233 202 156 -0.5643369 0.8156479 0.12744509 0
-0.3248978 0.18518132 0.24747789 229 193 145 0.17325003 0.98437405 -0.031500049 0
-0.31365636 0.18400002 0.24762404 229 194 147 0 1 0 0
-0.30658633 0.1840103 0.24428052 212 175 128 -0.39366227 0.91646439 0.07157506 0
-0.29680774 0.19581944 0.24664867 133 119 102 -0.98371071 0.16735059 0.065628216 0
-0.29634607 0.20776772 0.2441932 129 116 100 -0.99408114 -0.098636799 0.045534942 0
0.078268036 0.20730291 0.24638698 88 62 35 0.90353888 0.39576483 0.16427962 0
0.083989151 0.20120664 0.24576026 83 50 17 0.49662596 0.86788982 -0.011396345 0
-0.29779282 0.21571872 0.24165833 107 96 83 -0.98515826 -0.17164835 0 0
0.076015577 0.21396971 0.24449857 83 59 35 0.92498362 0.34561545 -0.15797222 0
0.07386224 0.22516771 0.24602222 58 35 19 0.99635673 0.060061075 -0.060547452 0
-0.30054826 0.23428407 0.24025312 51 46 43 -0.99183679 -0.090165883 0.090165883 0
0.074000001 0.23273094 0.24785385 21 6 1 1 0 0 0
-0.3010011 0.2422623 0.24651232 43 39 39 -0.97995806 -0.17817311 0.089087345 0
0.074000001 0.2417877 0.24494985 8 0 0 1 0 0 0
-0.30927554 0.25994518 0.2423933 37 33 32 -0.83491969 -0.54511273 0.075903177 0
0.075949423 0.25862598 0.24440753 1 0 0 0.97851491 -0.18599844 -0.088956147 0
-0.30730405 0.26650149 0.24551901 28 27 30 -0.92267007 0.34510469 0.17199644 0
0.077385731 0.26266786 0.24314018 1 0 0 0.89277738 -0.44698396 -0.056159571 0
-0.30152676 0.2745727 0.24667515 26 30 33 -0.59523803 0.79622799 0.10822525 0
-0.29921541 0.27663866 0.24713814 30 29 34 -0.68180794 0.73105055 0.026515236 0
0.082769223 0.27350113 0.24433824 0 0 0 0.95051485 0.30795354 0.041062955 0
-0.28832132 0.2870923 0.24596322 59 63 68 -0.70534074 0.70439285 0.07953091 0
0.073213898 0.28473732 0.24190813 0 0 0 0.89148539 0.44574162 -0.081044242 0
-0.26710138 0.29699999 0.24595986 80 86 98 0 1 0 0
-0.25646731 0.29699999 0.24836095 79 86 96 0 1 0 0
-0.24028613 0.29600936 0.2451032 79 86 96 0.087369226 0.99602276 -0.017473903 0
-0.23493937 0.296 0.24412888 89 95 104 0 1 0 0
-0.22222307 0.296 0.24530663 95 102 110 0 1 0 0
-0.21308047 0.296 0.24685094 97 104 112 0 1 0 0
-0.20472401 0.2957871 0.24521279 144 98 104 0.087651558 0.99602377 -0.01593668 0
-0.18496992 0.29503131 0.24347453 181 85 95 0.0039871437 0.99975157 0.021929231 0
-0.17255969 0.29499999 0.24242918 114 118 126 0 1 0 0
-0.15245661 0.29499999 0.24621704 118 125 133 0 1 0 0
-0.14603195 0.29499999 0.24604931 119 126 134 0 1 0 0
-0.13515903 0.29499996 0.24462475 120 126 134 0 1 0 0
-0.11541406 0.29487166 0.24361807 123 129 136 0.026140254 0.9990505 -0.034853663 0
-0.09473028 0.29470479 0.24689677 126 130 138 0.027774302 0.99504119 -0.095507018 0
-0.087873816 0.29424119 0.24543077 123 127 133 0.035785794 0.99802178 -0.05169056 0
-0.077679306 0.29456592 0.24555501 164 169 175 -0.087509155 0.99602365 0.016705027 0
-0.063561678 0.29498413 0.24349687 121 121 127 -0.026194297 0.99946296 -0.01968658 0
-0.053052876 0.29529083 0.24423531 113 117 126 -0.019139357 0.99522656 -0.095696561 0
-0.045088664 0.29551122 0.24542585 173 95 105 -0.012411328 0.99561691 -0.092698477 0
-0.030613327 0.29580003 0.24620263 211 78 91 -0.015936622 0.99602371 -0.087651581 0
-0.024621245 0.29612726 0.24807146 105 108 120 -0.023741111 0.9911539 -0.13057682 0
-0.011366462 0.29675061 0.24828778 102 110 121 -0.10317814 0.9920947 -0.071430951 0
-0.0005685637 0.2978934 0.24133144 106 114 125 -0.18827061 0.98058087 -0.054912876 0
0.069114096 0.29468906 0.24702787 0 0 0 0.6139406 0.78935224 0 0
0.070200071 0.2929503 0.24472097 0 0 0 0.97862095 0.20269656 -0.034858853 0
0.015344559 0.30292636 0.24630298 113 125 142 -0.3213819 0.94024086 -0.1125202 0
0.023970379 0.30515662 0.24453105 120 132 151 -0.13532534 0.98871976 -0.06418857 0
0.031654313 0.30627894 0.24773109 123 139 160 -0.095509596 0.99504101 -0.027773811 0
0.042910233 0.30739605 0.24375178 109 129 153 -0.087648995 0.99602401 0.015936172 0
0.055269748 0.30462781 0.24326184 80 87 97 0.53413737 0.8451544 -0.020284642 0
-0.34105036 0.16152623 0.25672048 128 109 79 -0.99927825 -0.001774917 0.037945867 0
-0.33766401 0.17685986 0.25669616 232 201 153 -0.82502705 0.55517173 0.1054259 0
-0.33067504 0.18354508 0.25556397 232 200 156 -0.54817361 0.82681108 0.12605239 0
-0.32913837 0.18479 0.25393057 233 204 158 -0.2954326 0.9488005 0.11179021 0
-0.31179017 0.18400002 0.25896475 228 191 146 0 1 0 0
-0.30485675 0.18433921 0.25650403 192 161 120 -0.17596833 0.98107105 0.08083795 0
-0.29519421 0.19521464 0.25729737 128 114 98 -0.96987963 0.16803877 0.176342 0
0.085624598 0.19789743 0.25632498 99 61 24 0.59042352 0.7668618 0.25164071 0
-0.29531294 0.20564526 0.2537787 124 111 97 -0.98386985 0 0.17888565 0
0.079118371 0.20506802 0.25528425 85 58 31 0.64018422 0.76822144 0 0
-0.29693919 0.21229415 0.25057122 126 114 102 -0.96082795 -0.23059924 0.15373264 0
0.074934877 0.21600778 0.2565394 71 48 26 0.9763574 0.20122644 0.07895641 0
-0.29786915 0.2204088 0.25491029 74 62 53 -0.98664635 -0.11517151 0.11517151 0
0.074000001 0.22929074 0.2546595 44 28 12 1 0 0 0
-0.29948479 0.23763044 0.25529784 55 47 46 -0.99183655 -0.090166494 0.090167783 0
-0.30035472 0.24375632 0.25661099 42 36 36 -0.97995812 -0.17817311 0.089087218 0
0.074513145 0.24481511 0.25348037 4 1 1 0.99544245 -0.090494886 -0.030082939 0
-0.30556506 0.25695094 0.2540879 38 35 36 -0.88185036 -0.4411495 0.16651417 0
0.075097874 0.25615001 0.25803494 0 0 0 0.99102485 -0.078625374 0.10811012 0
-0.30688423 0.26349458 0.25387603 28 30 29 -0.93903178 0.31301215 0.14227717 0
0.077962659 0.26528364 0.25623074 0 0 0 0.87530422 -0.42293352 0.2344563 0
-0.3041231 0.27051321 0.25579742 30 28 33 -0.94565439 0.30559584 0.11112591 0
0.078132533 0.27782863 0.25452402 0 0 0 0.82949263 0.55490106 0.063457496 0
-0.29296464 0.28205127 0.2578339 59 63 71 -0.65299481 0.75411963 0.070009515 0
0.073304228 0.287624 0.25197139 0 0 0 0.91448891 0.38986859 -0.10822445 0
-0.27545083 0.29519013 0.25419512 77 84 95 -0.36139658 0.92998195 0.067276344 0
-0.2632978 0.29699999 0.25094104 81 88 98 0 1 0 0
-0.25792316 0.29699999 0.2595264 77 84 90 0 1 0 0
-0.24253215 0.29635227 0.25545484 79 86 94 0.090824813 0.99576354 -0.014343938 0
-0.23659411 0.296 0.25410795 92 96 106 0 1 0 0
-0.22227293 0.296 0.25377494 93 97 106 0 1 0 0
-0.21563986 0.296 0.25415069 96 103 111 0 1 0 0
-0.19589236 0.29513428 0.25298518 114 103 119 0.087651521 0.99602377 -0.015936561 0
-0.18514769 0.29499999 0.2558527 135 96 109 0 1 0 0
-0.17215192 0.29499999 0.25452447 157 164 170 0 1 0 0
-0.1666609 0.29499999 0.25128892 119 124 128 0 1 0 0
-0.15574346 0.29500002 0.25252563 121 126 132 0 1 0 0
-0.14802195 0.29499999 0.25699818 118 125 133 0 1 0 0
-0.13225023 0.29499999 0.25579712 125 132 136 0 1 0 0
-0.12524396 0.29499999 0.25183383 212 216 227 0 1 0 0
-0.11920645 0.29499999 0.25810152 128 136 143 0 1 0 0
-0.10705493 0.29499999 0.25640365 179 186 190 0 1 0 0
-0.096094459 0.29499999 0.25341004 122 127 133 0 1 0 0
-0.077354982 0.29485729 0.25453392 126 132 140 -0.015936445 0.99602383 -0.087650269 0
-0.065531768 0.29523715 0.25542906 127 131 140 -0.011232793 0.99820268 -0.058865227 0
-0.049006924 0.29654679 0.25717792 120 124 133 -0.11302781 0.99115443 -0.069553219 0
-0.035489194 0.29639608 0.25339514 160 98 111 -0.013172711 0.99520838 -0.096885115 0
-0.025911124 0.29672578 0.25415069 113 117 126 -0.057495039 0.99446458 -0.087946258 0
-0.015467563 0.29778126 0.25673789 102 109 120 -0.064573437 0.98983812 -0.12669182 0
0.00067143282 0.29941958 0.25471982 107 117 129 -0.29544678 0.94623047 -0.13175397 0
0.068693019 0.29538921 0.2539382 71 66 63 0.63648021 0.76221919 -0.11796163 0
0.071689226 0.29239106 0.25601429 0 0 0 0.91623712 0.3647261 -0.16578431 0
0.0070336023 0.30076554 0.25011945 107 117 129 -0.29544681 0.94623047 -0.13175412 0
0.018000185 0.30462679 0.25628307 111 120 135 -0.23232296 0.9705804 -0.063243784 0
0.023213653 0.30539757 0.25301832 119 132 148 -0.1447552 0.98917335 -0.02412588 0
0.04557278 0.30701786 0.2538383 108 129 153 -0.035785802 0.99802178 0.0516905 0
0.055727642 0.30456504 0.25270474 140 122 118 0.53413737 0.8451544 -0.020284632 0
-0.34018102 0.16409297 0.2648735 142 125 95 -0.9934628 0.0601677 0.097012691 0
-0.33931738 0.16670097 0.26805353 233 206 159 -0.96849591 0.17609066 0.1760904 0
-0.33848402 0.17385726 0.26476628 234 202 158 -0.93487811 0.31162605 0.1699768 0
-0.32612583 0.18443669 0.26230538 229 196 151 -0.18628523 0.98191172 0.033870175 0
-0.31821725 0.18428354 0.26502615 230 196 151 0.08765021 0.99602389 -0.015936466 0
-0.30389088 0.18341887 0.2659651 218 182 138 -0.43067354 0.89959651 0.072432168 0
-0.29720137 0.18925968 0.26702794 137 120 102 -0.73488617 0.64135587 0.22046541 0
-0.29373184 0.19475158 0.26381782 107 93 77 -0.86691821 0.3110978 0.3894496 0
0.081725203 0.19619647 0.26787603 95 59 22 0.53674418 0.74801368 0.39036033 0
-0.29302436 0.20617563 0.26741242 122 108 92 -0.98136437 -0.071320787 0.17843014 0
0.075795531 0.20594865 0.26767316 78 52 29 0.83251542 0.42982864 0.34952179 0
0.080412775 0.20283581 0.26199487 94 58 26 0.76124936 0.57999969 0.28999984 0
-0.2945804 0.21196136 0.26586765 123 111 97 -0.95935422 -0.24669103 0.13705137 0
0.075426914 0.21108729 0.26292145 81 50 21 0.86137229 0.37326017 0.34454998 0
-0.29773661 0.2299643 0.26443076 58 49 44 -0.97995794 -0.089085989 0.17817442 0
0.073730387 0.2235617 0.26453874 73 52 33 0.99659264 0 0.082480736 0
-0.29769289 0.23780155 0.26858991 49 44 41 -0.97995794 -0.089086004 0.17817442 0
0.074000001 0.23043782 0.26243111 14 0 0 1 0 0 0
-0.29867089 0.24230507 0.26711509 47 38 39 -0.96849591 -0.1760904 0.1760904 0
0.07404796 0.24389485 0.26295447 0 0 0 0.98938721 -0.022741571 0.14351264 0
-0.30079341 0.25318053 0.2697863 37 32 36 -0.92151845 -0.35033005 0.167549 0
0.074134104 0.2572262 0.26312476 0 0 0 0.97036284 -0.0073631182 0.24154061 0
-0.30446222 0.26345277 0.26592496 36 31 36 -0.98875654 -0.048922144 0.14130493 0
0.075058997 0.26453373 0.26546982 0 0 0 0.88166088 -0.40823925 0.23667444 0
-0.30056337 0.27446282 0.26391894 26 27 32 -0.70320994 0.71027207 0.031769939 0
0.078397639 0.27292788 0.26455629 0 0 0 0.94802493 -0.037250537 0.31600806 0
-0.29412225 0.28087771 0.26102781 28 27 35 -0.7071057 0.7071079 -3.9960244e-07 0
-0.28567761 0.28750587 0.26595664 87 95 107 -0.58132237 0.81290877 0.035265975 0
0.073752224 0.28575701 0.26732218 0 0 0 0.95605558 0.23609589 0.17382899 0
-0.28078791 0.29084581 0.26361457 77 84 94 -0.52210951 0.847579 0.094929136 0
-0.27016214 0.29698813 0.26721421 75 82 92 -0.52210957 0.84757894 0.094929144 0
-0.2551752 0.29699999 0.26595581 75 82 91 0 1 0 0
-0.243211 0.29662317 0.26886213 80 89 94 0.096029252 0.99522543 -0.017459758 0
-0.23587695 0.29610777 0.26788151 85 93 101 0.048072089 0.99880558 -0.0087403944 0
-0.2256272 0.296 0.2686646 77 84 91 0 1 0 0
-0.21857648 0.296 0.2651386 89 96 104 0 1 0 0
-0.20555082 0.296 0.26557535 95 102 110 0 1 0 0
-0.19448915 0.29577821 0.26455048 98 105 113 0.039309718 0.99757147 -0.057497237 0
-0.18253803 0.29536578 0.26670563 97 104 112 0.087297946 0.98935878 -0.11639716 0
-0.17115678 0.29576665 0.26997396 108 116 119 -0.017460397 0.99522513 -0.096031912 0
-0.16079426 0.29583371 0.26956078 108 117 122 -0.0088857524 0.9951722 -0.097741552 0
-0.15657155 0.29530898 0.2628881 125 133 139 -0.015936667 0.99602371 -0.087651514 0
-0.14687771 0.29535058 0.26159808 120 127 133 -0.01593668 0.99602377 -0.087651499 0
-0.13629584 0.29559556 0.2640973 123 131 136 0.018531093 0.99779558 -0.063722663 0
-0.12689085 0.29558259 0.26955336 196 205 210 0.072633758 0.99264568 -0.096845053 0
-0.11427666 0.29523346 0.26552665 141 150 158 -0.016705343 0.99602342 -0.087511957 0
-0.10585429 0.29566839 0.26893261 143 150 158 -0.015936671 0.99602377 -0.087651514 0
-0.094684154 0.29549855 0.26497161 178 184 190 -0.015936671 0.99602377 -0.087651514 0
-0.083518304 0.29577413 0.26631916 134 141 149 -0.011961423 0.99776196 -0.065787695 0
-0.065746948 0.2961238 0.26675522 124 128 135 -0.016705049 0.99602365 -0.087509103 0
-0.056186881 0.29638577 0.26530921 118 122 131 -0.10397218 0.99167144 -0.076010071 0
-0.045723252 0.29704896 0.26238999 114 120 128 -0.059615433 0.99504107 -0.079619236 0
-0.036972407 0.2976346 0.2661266 112 116 125 -0.045056295 0.99558711 -0.082317352 0
-0.022719493 0.29864034 0.26676074 108 113 122 -0.021073354 0.99303693 -0.11590321 0
-0.010120995 0.29907197 0.26407292 97 104 114 -0.10436491 0.9914543 -0.078271255 0
-0.0034453883 0.29972923 0.26412201 104 110 120 -0.062081203 0.99390292 -0.091120288 0
0.064743318 0.2989946 0.26347777 77 73 71 0.5180186 0.84650385 0.12283331 0
0.071565166 0.29368502 0.26761949 0 0 0 0.90453422 0.30151078 0.30151159 0
-0.0012414719 0.30010948 0.26661107 103 110 120 -0.17604288 0.98425239 0.016003888 0
0.0036349199 0.30139673 0.26229632 105 113 124 -0.29680479 0.94606823 -0.1298532 0
0.018364221 0.30486122 0.26345614 112 122 136 -0.066024788 0.99781519 -0.0023681868 0
0.023012511 0.30546439 0.26655847 112 123 136 -0.12609361 0.99175757 0.022743599 0
0.036009286 0.30688429 0.26199499 130 141 161 -0.051897228 0.99800593 -0.035928816 0
0.043566514 0.30694795 0.26886225 134 150 173 0.087651581 0.99602377 -0.015936641 0
0.054193839 0.30549386 0.26543579 102 112 130 0.32094923 0.90486425 0.27966461 0
0.061882459 0.30166036 0.26395553 145 132 124 0.63343972 0.77164632 -0.05758566 0
-0.3391102 0.16240846 0.27298409 132 114 83 -0.98568773 0.088710628 0.1433531 0
-0.33657515 0.17483707 0.27311239 232 200 155 -0.9247722 0.36878425 0.093779378 0
-0.32504603 0.18436687 0.27412724 230 199 152 -0.27524534 0.96101081 0.026423687 0
-0.31384 0.18400657 0.27607077 228 194 149 0.041250009 0.99882334 -0.02550116 0
-0.30022219 0.18380997 0.27510357 226 192 147 -0.29938355 0.9525789 0.054433446 0
-0.29612911 0.18882844 0.27260286 136 121 100 -0.77512378 0.62748194 0.073820911 0
-0.29151666 0.19483082 0.27296668 130 115 101 -0.89442724 0 0.44721362 0
0.077189133 0.19671333 0.27391523 86 54 26 0.44984931 -0.27972135 0.84816951 0
0.084889732 0.19249737 0.27419674 69 43 17 0.22796071 0.91465616 0.33382344 0
-0.2918593 0.2066751 0.27575991 112 98 84 -0.96573609 -0.20722316 0.1562445 0
0.074949607 0.20352288 0.27183008 83 55 31 0.57758641 0.44436538 0.68478703 0
-0.29504681 0.2198389 0.2734201 69 56 48 -0.97841895 -0.10512054 0.17789352 0
0.069439992 0.2176719 0.278584 70 49 30 0.8137337 0 0.58123791 0
0.071894526 0.21086583 0.27490711 76 55 37 0.92265165 0.049104728 0.38249537 0
-0.29503444 0.2259661 0.27936855 73 56 48 -0.97851521 -0.18599659 0.088957377 0
0.069785118 0.22247759 0.27810085 0 1 0 0.8137337 0 0.58123791 0
0.072514586 0.22634582 0.27191246 18 1 0 0.98639387 0 0.1643994 0
-0.2966283 0.23562737 0.27371597 49 45 42 -0.99183661 -0.090165868 0.090168424 0
0.071684562 0.2345199 0.2743752 5 0 1 0.87994534 0.018086607 0.47473064 0
-0.29870725 0.24718383 0.27191275 48 38 39 -0.97516668 -0.17730325 0.13271603 0
0.069558755 0.24131155 0.27771938 0 0 0 0.76692295 0.058099553 0.63910377 0
0.070369408 0.24514678 0.27663061 0 0 0 0.70710683 0 0.70710683 0
-0.30290741 0.25998223 0.27757439 27 36 41 -0.95880926 -0.11093501 0.26149246 0
-0.29989386 0.25108373 0.27751198 47 41 43 -0.9100576 -0.40614071 -0.082733877 0
0.068093382 0.25529882 0.27890664 0 0 0 0.70710683 0 0.70710683 0
0.072585717 0.25879532 0.27148569 0 0 0 0.98639393 0 0.1643994 0
-0.30336821 0.26674441 0.27361667 34 32 38 -0.97936261 0.10881662 0.17031673 0
0.069527805 0.26201102 0.27756411 0 0 0 0.70565039 -0.064149164 0.70565039 0
0.072140694 0.26423243 0.27515316 0 0 0 0.70565009 -0.064149439 0.70565063 0
-0.30233321 0.27163783 0.27395016 27 28 34 -0.95483899 0.25333068 0.15526132 0
0.068182081 0.27560288 0.27934352 0 0 0 0.62362266 0.14827384 0.76753479 0
-0.29070669 0.28347179 0.27599844 40 43 44 -0.92241216 0.37306759 0.099881768 0
0.065966316 0.2890166 0.27868932 0 0 0 0.62514639 0.13114808 0.76941031 0
0.072113857 0.2844049 0.27425873 0 0 0 0.70138097 0.12700741 0.7013799 0
-0.27566522 0.29303393 0.2722525 76 84 92 -0.52210945 0.84757906 0.094928823 0
-0.26391828 0.29699999 0.27553135 77 84 94 0 1 0 0
-0.24905026 0.29699999 0.27557355 75 84 91 0 1 0 0
-0.23112181 0.296 0.27503896 84 93 100 0 1 0 0
-0.21238407 0.296 0.27338612 86 94 103 0 1 0 0
-0.2031558 0.296 0.27112249 92 99 109 0 1 0 0
-0.19999209 0.296 0.27340955 95 102 110 0 1 0 0
-0.18575457 0.296 0.27434468 90 97 105 0 1 0 0
-0.17833398 0.29586542 0.27230236 99 108 117 -0.017460175 0.99522507 -0.096032262 0
-0.16611943 0.296 0.27686086 111 120 123 0 1 0 0
-0.15296762 0.296 0.27991596 109 118 123 0 1 0 0
-0.14381272 0.296 0.27572441 157 164 168 0 1 0 0
-0.13282217 0.296 0.27729031 151 160 167 0 1 0 0
-0.12292436 0.29548791 0.27007848 144 153 160 -0.016193695 0.99589413 -0.089065142 0
-0.10766615 0.296 0.27605864 148 158 167 0 1 0 0
-0.096091703 0.296 0.27549863 155 164 173 0 1 0 0
-0.085017614 0.29601142 0.27711156 151 160 169 -0.0079759387 0.9990055 -0.043868221 0
-0.076201722 0.29619509 0.27685153 137 144 152 -0.088360861 0.99601603 0.01201688 0
-0.06432201 0.29699999 0.27905849 132 139 147 0 1 0 0
-0.058201287 0.29698372 0.2750549 120 127 135 -0.017473882 0.99602276 -0.087369241 0
-0.044682145 0.29793289 0.27634606 118 125 133 -0.029243046 0.99955821 0.0053169127 0
-0.033063211 0.29808319 0.27645379 105 112 120 -0.087648988 0.99602401 0.015936172 0
-0.022503031 0.29898551 0.27813765 110 117 125 -0.087648988 0.99602401 0.01593617 0
-0.017534249 0.29866046 0.27806586 106 111 120 0.054214407 0.95296925 0.29817861 0
-0.0039673671 0.29948321 0.27562642 105 112 121 -0.053169917 0.97380912 0.22106268 0
0.0034519581 0.29915023 0.27870589 105 112 121 -0.086488895 0.90093744 0.42524287 0
0.017038036 0.29969895 0.27916956 106 113 123 -0.007280075 0.90984333 0.41488814 0
0.065119304 0.2953071 0.27583671 38 39 41 0.43890247 0.80269152 0.40379563 0
0.0060439524 0.30134913 0.27097884 99 107 118 -0.27041382 0.95111352 0.14919588 0
0.019028496 0.30428731 0.27229011 107 116 125 -0.18541439 0.91637397 0.35479602 0
0.027918711 0.30427331 0.27469027 108 118 129 -0.09456671 0.87057966 0.48285416 0
0.036453724 0.30447102 0.27532384 115 126 142 0.03290404 0.93648195 0.34916899 0
0.045700282 0.30466369 0.27260134 129 142 160 0.13794969 0.88422889 0.44621649 0
0.054057166 0.30143684 0.27536881 105 117 134 0.37985656 0.86436838 0.32950908 0
-0.33705011 0.16377784 0.28472042 144 124 93 -0.9950043 0.0229677 0.09715379 0
-0.33432534 0.17482272 0.28531036 232 200 158 -0.87582505 0.45346674 0.16522209 0
-0.32515106 0.18427938 0.28504944 232 202 158 -0.67175531 0.73354685 0.10321681 0
-0.31408677 0.18478383 0.28321448 228 196 152 0.16575557 0.96127343 -0.22017829 0
-0.30497897 0.18377921 0.28464907 227 191 145 0.1186534 0.91210008 -0.39242169 0
-0.29914719 0.18465033 0.28385684 143 116 88 -0.66994548 0.73699033 -0.089545101 0
-0.29284388 0.19696876 0.28260335 15 6 7 -0.96787518 0.10055943 -0.23044628 0
0.046881642 0.19612752 0.28898335 35 18 2 0.15991731 0.095052734 0.98254329 0
0.050823256 0.19419041 0.2887823 38 22 6 0.08737193 0.26210904 0.96107495 0
0.064345635 0.19614173 0.28535566 63 37 12 0.33054206 0.25390631 0.90899593 0
0.076977745 0.19121663 0.28331318 69 42 15 0.27567458 0.73126394 0.62390423 0
0.082044967 0.1904595 0.28680742 94 58 22 -0.18671253 0.98023868 0.065349437 0
-0.29230806 0.20938888 0.28489783 32 21 19 -0.99589306 -0.090537325 0 0
0.050245583 0.20546648 0.28844911 44 27 9 0.090445034 0.045128912 0.99487841 0
0.065561585 0.20654573 0.28110892 70 43 20 0.65579784 0.090575457 0.74948329 0
0.035551216 0.21506718 0.28994989 51 33 13 0.090535931 -1.3548976e-06 0.99589318 0
0.04376306 0.21309185 0.28921625 35 22 8 0.12007455 -0.032827031 0.99222195 0
0.052256122 0.21872638 0.28801948 53 38 17 0.17817454 -0.089085884 0.979958 0
0.064599782 0.21595836 0.2832948 74 49 27 0.44574213 0.081043132 0.89148527 0
-0.29355985 0.22007908 0.28509751 82 71 65 -0.98387033 -0.17888309 0 0
0.048291158 0.22513658 0.28909537 36 22 9 0.14123568 -0.051357497 0.98864299 0
0.061030369 0.22379148 0.28517058 46 31 17 0.49234483 8.0183702e-07 0.87040025 0
-0.29565698 0.23389477 0.28266793 64 38 37 -0.99183655 -0.090168551 0.090165861 0
0.047418877 0.23533022 0.28965044 1 0 0 0.1258906 -0.025691301 0.99171138 0
0.056661058 0.23761325 0.28775373 0 0 0 0.40573159 0 0.91399229 0
0.06689617 0.23895551 0.28107265 0 0 0 0.57346225 0 0.81923199 0
-0.29743129 0.24390246 0.2840524 46 40 39 -0.93979323 -0.34174347 1.1590472e-07 0
0.047512397 0.2449757 0.28984135 1 0 0 0.21395534 0.047455467 0.97569013 0
0.057458892 0.24723087 0.28815404 0 0 0 0.70594579 -0.10054019 0.70109361 0
0.066676378 0.24727048 0.28047466 0 0 0 0.57187849 0.074268945 0.81696951 0
-0.3001737 0.25891805 0.28911993 126 54 57 -0.98402077 -0.10267916 0.14546518 0
0.057686538 0.25256911 0.28894901 0 0 0 0.81906772 0 0.57369697 0
0.065651178 0.25631836 0.28119898 0 0 0 0.66436309 0 0.74741006 0
-0.30209431 0.2663714 0.28338775 70 45 51 -0.99605155 0.0003325601 0.088775873 0
0.058533609 0.26367804 0.28838441 0 0 0 0.96690202 -0.045642167 0.2510322 0
0.060992084 0.26320058 0.2855404 0 0 0 0.66283482 -0.067789204 0.74569076 0
-0.30115879 0.27286667 0.28183922 29 31 32 -0.72280049 0.69104546 0.0039693271 0
-0.29678395 0.27713871 0.28443247 35 37 39 -0.66828418 0.73860145 0.08867994 0
0.058772877 0.27139819 0.28967655 0 0 0 0.82269114 -0.14958014 0.54845703 0
0.064320929 0.27322608 0.28323323 0 0 0 0.68483001 0.24902873 0.68483031 0
-0.2904911 0.28336659 0.2844232 33 39 37 -0.70534557 0.70534557 0.0705356 0
-0.28932923 0.28400105 0.28893593 42 43 47 -0.85056686 0.50261301 0.15464874 0
-0.27912042 0.28930628 0.28756419 84 88 99 -0.46523818 0.88113463 0.084588371 0
0.021067156 0.28759259 0.28959659 0 0 0 0.08512456 0.34050307 0.93638217 0
0.044752095 0.28141195 0.28984571 0 0 0 0.14926511 0.4382771 0.88635945 0
0.055145562 0.28289282 0.2874074 0 0 0 0.31067318 0.34398898 0.88608903 0
-0.26085982 0.29695451 0.2843577 77 84 92 -0.075282037 0.99121541 0.10874113 0
-0.25602594 0.2969785 0.28478542 77 86 94 0.005829718 0.99955803 0.029148936 0
-0.24459767 0.29699999 0.28359872 74 83 90 0 1 0 0
-0.23384519 0.2967656 0.28519022 77 87 94 0.055460673 0.99765354 -0.040142756 0
-0.22455625 0.29614902 0.2827546 78 88 97 0.087649025 0.99602401 -0.015936205 0
-0.21497904 0.296 0.28579393 80 86 93 0 1 0 0
-0.2023095 0.296 0.28544074 76 83 93 0 1 0 0
-0.19130455 0.296 0.28310156 94 101 108 0 1 0 0
-0.18394224 0.29596952 0.28343451 92 99 105 0.0079762731 0.99900544 0.04386938 0
-0.176891 0.296 0.28039747 105 112 120 0 1 0 0
-0.16852967 0.29593882 0.28397301 103 110 118 0.015936663 0.99602377 0.087651528 0
-0.15327786 0.296 0.28527653 137 144 149 0 1 0 0
-0.14104526 0.296 0.28435087 125 132 140 0 1 0 0
-0.13943352 0.296 0.28137839 137 146 153 0 1 0 0
-0.12060284 0.29617009 0.28346175 157 167 176 -0.088916719 0.99588031 0.017783279 0
-0.11286635 0.29652682 0.28319111 157 167 177 -0.01118126 0.99826044 -0.057889074 0
-0.098020114 0.29640695 0.28699097 167 177 187 0.013197405 0.99558735 -0.092906252 0
-0.081755742 0.2965757 0.28622508 166 176 185 -0.0159362 0.99602401 -0.087648913 0
-0.075846434 0.29670945 0.28665721 157 166 175 -0.017473929 0.9960227 -0.087369442 0
-0.059285823 0.29653639 0.28758004 135 143 146 0.090720192 0.86185926 0.49896747 0
-0.044298429 0.29753655 0.28424987 120 128 136 0.00016196493 0.94580728 0.32472852 0
-0.03471294 0.29658863 0.2848455 115 122 130 0.088125497 0.87023568 0.48468924 0
-0.023642136 0.29581502 0.28475475 113 118 126 0.064368047 0.8640579 0.49926028 0
-0.014903799 0.2944521 0.28629473 110 114 121 -3.8618694e-07 0.88785774 0.46011809 0
-0.0052025989 0.29389298 0.28738618 86 92 98 -0.056695979 0.80762899 0.58695918 0
0.0028022183 0.29463777 0.28736219 104 109 116 0 0.70710683 0.70710683 0
0.01650252 0.29365271 0.28699404 64 68 74 0.075142756 0.54190505 0.83707374 0
0.025646957 0.29630271 0.28485897 99 105 114 -0.031650677 0.66439134 0.74671435 0
0.033229925 0.29401547 0.28698674 100 107 117 0 0.65079224 0.75925589 0
0.045046616 0.29318783 0.28618249 62 65 70 0.12631218 0.44189227 0.88813084 0
0.055034149 0.29259562 0.28382441 0 0 1 0.30135575 0.41761765 0.85719329 0
0.036983162 0.3004975 0.28139341 103 110 120 0.0097245388 0.65156192 0.75853318 0
-0.33566946 0.1632079 0.29649159 168 147 114 -0.96132165 0.19475687 0.19475706 0
-0.33254981 0.1727404 0.29583719 232 200 159 -0.70349765 0.57177007 0.42210194 0
-0.32852969 0.17672189 0.29565576 233 202 158 -0.64279866 0.64711821 0.4099364 0
-0.32086691 0.1842255 0.29894701 233 203 159 -0.82993579 0.41497403 0.37283143 0
-0.31815457 0.1880407 0.29615635 232 198 152 -0.59249824 0.78540391 0.17912754 0
-0.30518878 0.18762591 0.29004645 153 121 96 0.12732878 0.73850846 -0.6621123 0
0.0048424075 0.18858957 0.29883099 46 27 12 0.060259487 0.94155473 0.3314265 0
0.018636163 0.18875757 0.29696113 41 22 7 -0.022517793 0.93823355 0.3452692 0
0.048758358 0.18845181 0.29933143 45 23 9 0.050833013 0.96582419 0.25416461 0
0.059527017 0.18995744 0.29491881 72 47 17 0.40477002 0.80301344 0.43741363 0
0.06097848 0.18835025 0.29901081 97 62 34 -0.17440039 0.98411435 0.033219069 0
-0.31071052 0.19327846 0.29609314 226 194 147 0.025126381 0.77259159 -0.63440603 0
-0.30534619 0.19220605 0.29627657 226 193 148 0.24472402 0.96436346 -0.10056496 0
-0.29707667 0.1938448 0.29442292 95 81 67 -0.86180067 0.43832147 -0.2552917 0
-0.031118713 0.19670916 0.29963556 63 44 27 0.087369271 0.26211283 0.96107417 0
-0.024278518 0.19719893 0.29855394 64 45 27 0.13198298 0.21952258 0.96663868 0
-0.014489813 0.19527867 0.29764545 59 39 23 0.085410707 0.33172536 0.93950158 0
-0.0030011898 0.19069791 0.29812965 44 28 15 0.13018879 0.39056909 0.9113214 0
0.0054392829 0.19507675 0.2950801 54 35 17 0.13537855 0.31762418 0.93850279 0
0.017676342 0.19292665 0.29409057 50 34 16 0.15444501 0.33977932 0.92773747 0
0.023869488 0.19453228 0.29264861 51 32 16 0.15538587 0.28102389 0.94703794 0
0.033366282 0.19306833 0.29223409 51 29 9 0.023849128 0.60930085 0.79258043 0
0.044968333 0.19114095 0.29123655 44 24 5 0.12781103 0.6996519 0.70295918 0
0.050990991 0.19175285 0.29043469 37 20 4 -0.2122376 0.80650544 0.55181897 0
0.078812495 0.19 0.29247281 104 66 30 0 1 0 0
0.082966685 0.19043784 0.29391813 109 70 32 -0.18555816 0.98257226 0.010956606 0
-0.29442978 0.20549837 0.29388505 25 5 6 -0.96979713 0.12266178 -0.21082641 0
-0.042938791 0.20454267 0.2986114 45 23 13 0.089043446 0.18082695 0.97947586 0
-0.015210763 0.20562832 0.2956543 61 41 23 0.14189002 0.1372005 0.98032808 0
-0.0037658601 0.20532893 0.29405427 52 32 18 0.089693345 0.13600579 0.9866395 0
0.0086779343 0.20598239 0.29239625 59 40 23 0.088957436 0.18599647 0.97851515 0
0.016446337 0.20821282 0.29157457 19 4 0 0.1781745 -0.089088634 0.9799577 0
0.023301549 0.20267591 0.29084671 50 31 14 0.088132642 0.18593967 0.97860062 0
0.034131698 0.20559567 0.29012617 48 31 14 0.045296766 0.0038974294 0.99896598 0
-0.060100093 0.21715745 0.29948884 51 35 21 0.19583815 -0.053257778 0.97918892 0
-0.05400233 0.2107708 0.29870889 69 46 28 0.090098895 0.098287083 0.99107111 0
-0.045511756 0.21438454 0.29767907 49 29 16 0.09042573 0.049323142 0.994681 0
-0.034135338 0.21642396 0.29650718 54 37 22 0.090535924 1.7594053e-07 0.99589318 0
-0.021813808 0.21480241 0.29554135 35 21 13 0.090535939 -3.7434166e-08 0.99589318 0
-0.011043534 0.21202742 0.29440874 66 43 25 0.19611652 0 0.98058063 0
-0.0021206923 0.21498647 0.29339623 38 25 16 0.090424933 -0.049202964 0.99468708 0
0.0092163403 0.21299431 0.29285982 61 42 25 0.045150336 -0.049254946 0.99776518 0
0.014158523 0.21123305 0.29233921 45 27 17 0.19500394 -0.10636719 0.97501773 0
-0.29420212 0.22510585 0.29517639 65 52 48 -0.98940516 -0.13853574 -0.043419234 0
-0.050494999 0.22260961 0.29832861 10 0 0 0.090096235 -0.098286726 0.99107134 0
-0.040319659 0.22528166 0.29766858 10 0 0 0.090098865 -0.098289602 0.99107081 0
-0.033949658 0.22979257 0.29752201 10 0 0 0.090168454 -0.090168536 0.99183637 0
-0.0221444 0.22758149 0.29624435 9 0 1 0.090096235 -0.09828674 0.99107134 0
-0.013953242 0.2222864 0.29497457 35 22 15 0.090097561 -0.098288178 0.99107111 0
-0.0051062745 0.22669274 0.29459941 4 0 0 0.090133101 -0.094228417 0.99146211 0
0.0051898584 0.22616713 0.29361868 8 0 0 0.090131782 -0.094227098 0.99146235 0
0.01581455 0.22366047 0.29273689 40 26 16 0.060413338 0 0.99817342 0
0.025787387 0.22304606 0.29153228 28 16 9 0.14275241 -0.10247079 0.98443967 0
-0.29523987 0.23623705 0.29608262 60 46 43 -0.99364847 -0.0992864 -0.05296227 0
-0.052040167 0.23568544 0.29970598 9 0 1 0.1781745 -0.089088634 0.9799577 0
-0.043734092 0.23752393 0.29911438 6 0 0 0.090167589 -0.090167612 0.99183655 0
-0.033077214 0.23613502 0.29801929 9 0 1 0.090165809 -0.090165883 0.99183679 0
-0.029175699 0.23252621 0.29733655 10 0 0 0.090168461 -0.090168528 0.99183631 0
-0.016308997 0.23345113 0.29625091 7 1 0 0.090166718 -0.090166777 0.99183673 0
0.0058099842 0.23355907 0.29424992 6 0 0 0.090165824 -0.090165883 0.99183679 0
0.0154728 0.23648185 0.29350328 5 0 0 0.17817453 -0.089085996 0.97995794 0
0.032536235 0.23518997 0.2913149 5 1 0 0.090534605 0 0.9958933 0
-0.2970888 0.2459175 0.29289672 48 40 37 -0.95197713 -0.22399482 0.20872451 0
-0.035935394 0.24052861 0.29867852 5 0 0 0.090167142 -0.090167098 0.99183661 0
-0.027542111 0.2431443 0.29815331 9 0 1 0.090167157 -0.090167098 0.99183661 0
-0.016298044 0.24524245 0.29708207 7 0 0 0.13462189 -0.044632893 0.98989135 0
-0.0061973273 0.24922949 0.29583612 6 0 0 0.090537265 0 0.99589306 0
0.0064770556 0.24510936 0.2946839 5 0 0 0.090535477 0 0.99589318 0
0.019585796 0.24891025 0.2934922 4 0 0 0.09053459 0 0.9958933 0
0.025379859 0.24551785 0.29267952 3 0 0 0.13430396 -0.089716956 0.98687047 0
0.036829568 0.24663448 0.29146731 2 0 0 0.13430266 -0.089714311 0.98687088 0
-0.29915267 0.25621849 0.29683435 40 30 31 -0.92941636 -0.36871758 -0.015250172 0
-0.030444268 0.25885046 0.29984498 6 0 0 0.090168461 -0.090168417 0.99183637 0
-0.024173025 0.25490907 0.29847026 6 0 0 0.09053459 0 0.9958933 0
-0.014346201 0.25450218 0.29715389 3 0 0 0.17888582 0 0.98386985 0
-0.0061658733 0.2544769 0.29583326 5 0 0 0.090537265 0 0.99589306 0
0.013691647 0.25561193 0.29402804 3 0 0 0.09053459 0 0.9958933 0
0.025530228 0.25416556 0.29295179 2 0 0 0.090536386 0 0.99589318 0
0.045265809 0.25355673 0.29080701 2 0 0 0.043031331 -0.17768918 0.98314542 0
-0.30110228 0.26495951 0.29487473 206 66 67 -0.99589336 0 0.090534531 0
-0.025989221 0.26058352 0.29925528 4 0 0 0.15568399 -0.49252498 0.85626024 0
-0.010598022 0.26104525 0.29653543 4 0 0 0.10539336 -0.80801237 0.57966226 0
-0.0055788406 0.26259005 0.29810199 4 0 0 0.072282687 -0.81426001 0.57598251 0
0.0064748959 0.26231563 0.29611772 4 0 0 0.082655624 -0.75654596 0.64869577 0
0.013291101 0.26126054 0.29462793 3 0 0 0.10083011 -0.50271696 0.85855055 0
0.025552006 0.26328707 0.29448321 0 0 0 0.1070861 -0.58403122 0.8046366 0
0.033329118 0.26134792 0.29240149 2 0 0 0.087074071 -0.25281689 0.96358794 0
0.040726662 0.26134694 0.29240733 2 1 0 -0.099016406 -0.099017881 0.99014705 0
0.056190051 0.26937336 0.29118061 0 1 0 0.3368614 -0.16843057 0.92636687 0
-0.29928625 0.27380908 0.29405206 28 28 34 -0.69764936 0.71333444 0.066629216 0
0.0050250404 0.27849445 0.2981813 1 0 0 0.12591699 0.71030307 0.69254208 0
0.01476283 0.27767327 0.29727226 0 0 0 0.062484682 0.71182477 0.69957209 0
0.025972191 0.27706385 0.29645908 0 0 0 0.13407581 0.66199887 0.73741525 0
0.035989124 0.27243865 0.29643729 0 0 0 0.17661987 -0.18475854 0.96678317 0
0.042961303 0.2740719 0.29405114 0 0 0 0.22732399 0.29237378 0.92889261 0
0.055415284 0.27250391 0.29125625 0 0 0 0.46801466 0.20776328 0.85895097 0
-0.29059613 0.28198543 0.29153413 32 35 40 -0.65753579 0.74387771 0.11955211 0
-0.28585979 0.28579146 0.29493478 63 66 73 -0.67384005 0.73681664 0.055143353 0
-0.27703366 0.2897104 0.29507482 75 84 93 -0.40630296 0.91011792 0.081260823 0
-0.047387585 0.28800413 0.29857892 72 73 78 0.11866239 0.58276135 0.80393308 0
-0.033867572 0.2831988 0.29956663 9 13 12 0.14821513 0.55992091 0.81518155 0
-0.025490431 0.28551173 0.29676512 9 8 9 0.094666377 0.63278151 0.7685219 0
-0.01699206 0.28444132 0.2967492 0 0 0 0.12333537 0.63955432 0.75878769 0
-0.0055668051 0.28399402 0.29539865 1 0 1 0.11381041 0.62032187 0.77604645 0
0.0046854401 0.28419983 0.29323429 0 0 0 0.11460646 0.57022834 0.81345254 0
0.023837071 0.28177631 0.29219708 0 0 0 0.093525425 0.71942252 0.68824726 0
0.030083928 0.28262335 0.29074419 0 0 0 0.082067899 0.42230392 0.90273154 0
0.04183431 0.28092015 0.29066408 0 0 0 0.095673516 0.57403982 0.81321889 0
-0.26737264 0.29495907 0.29134294 74 83 90 -0.44230723 0.88095963 0.16815026 0
-0.2551164 0.29653829 0.29112676 76 85 92 -0.026375949 0.98907077 0.14506319 0
-0.24072844 0.29583296 0.29905382 80 87 97 0.087651618 0.99602377 -0.01593668 0
-0.23510754 0.29612049 0.29419568 77 86 93 0.015936127 0.99602395 0.087649159 0
-0.22831297 0.29589731 0.29549679 78 85 91 0.015936492 0.99602371 0.087651767 0
-0.21995263 0.296 0.29314515 78 83 89 0 1 0 0
-0.20726681 0.2959035 0.2924788 79 86 92 0.043869413 0.99900544 -0.0079762302 0
-0.19518979 0.29532799 0.2958909 84 89 97 0.016961833 0.99602318 0.087465063 0
-0.18481626 0.29505712 0.29743135 85 92 99 0.0079762647 0.99900544 0.043869395 0
-0.17251596 0.29513371 0.29384702 97 104 112 0.01593668 0.99602377 0.087651499 0
-0.16514684 0.29534912 0.29259765 104 111 119 -0.035786774 0.9980216 0.051691975 0
-0.15828848 0.29558778 0.29417637 106 115 122 -0.087651506 0.99602377 0.01593666 0
-0.14271474 0.29605427 0.2966392 116 123 131 -0.048072021 0.99880558 0.0087403804 0
-0.13303317 0.29649222 0.29556641 129 135 145 -0.0016360498 0.99123138 0.13212726 0
-0.12328836 0.29647964 0.29559273 156 165 174 0.038463883 0.97560483 0.21613809 0
-0.11510564 0.29699886 0.29609746 160 172 184 -0.015936241 0.99602401 -0.087649137 0
-0.10685292 0.2955316 0.29716498 190 202 213 0.06737648 0.93478531 0.3487646 0
-0.093097992 0.29501659 0.29621291 120 125 130 0.052772921 0.8051737 0.59068632 0
-0.089889817 0.29408294 0.29783416 190 200 210 0 0.89442807 0.44721183 0
-0.075295515 0.29465064 0.29419151 130 136 142 0.10637314 0.85353971 0.51005363 0
-0.06464 0.29347584 0.29397643 124 129 137 0.0704806 0.86609066 0.49489355 0
-0.054768782 0.29355511 0.29283801 118 125 131 0.035269629 0.86328685 0.50347978 0
-0.04794696 0.2930941 0.29330266 120 125 129 0.039896138 0.89766783 0.43886313 0
-0.033278435 0.29268187 0.2919111 115 121 130 0.10471218 0.81077057 0.57592219 0
-0.029641764 0.29251003 0.29168665 110 119 124 0.078206353 0.89937121 0.43013403 0
-0.33403713 0.16254506 0.30411816 131 114 84 -0.976928 0.15105666 0.15097541 0
-0.33057719 0.17200249 0.30003387 234 203 159 -0.65094268 0.65094757 0.39056486 0
-0.32823032 0.17158237 0.30799186 232 201 158 -0.62462163 0.75341082 0.20547493 0
-0.32146913 0.18148467 0.30253637 230 201 159 -0.71536404 0.61730033 0.32740584 0
-0.31526053 0.1857374 0.30328616 229 198 154 -0.53478467 0.69396728 0.48209405 0
-0.30411732 0.18911707 0.30631158 211 177 132 -0.64654005 0.71045679 0.27791569 0
-0.08285062 0.18875864 0.30988708 61 40 21 0.090443388 0.6331017 0.76876676 0
-0.069069088 0.18771993 0.30926701 64 43 24 0.079567216 0.61141413 0.78730035 0
-0.025388988 0.18697827 0.30706877 62 38 15 0.018091904 0.96543622 0.26001042 0
-0.016886579 0.18856449 0.3014386 53 34 17 0.169029 0.50709063 0.84515584 0
-0.0076782936 0.18683736 0.3043552 59 35 14 0.048596267 0.96583182 0.25457275 0
0.0035090325 0.18607703 0.30582985 53 31 11 0.018887222 0.94072384 0.33864743 0
0.022586491 0.18657191 0.30407497 74 43 15 -0.055900857 0.98146993 0.1832809 0
0.033108823 0.18659577 0.30572471 65 38 11 0.022690706 0.99192262 0.12479862 0
0.045322388 0.18619666 0.30748391 85 50 18 -0.14217293 0.97152066 0.18956387 0
0.052195907 0.18779811 0.30266231 80 49 18 0.017473882 0.99602276 0.087369241 0
0.066219121 0.18891166 0.30597073 95 60 32 -0.25497973 0.96583444 0.046359323 0
-0.30294812 0.19147801 0.3073698 123 105 93 -0.66666591 0.73333454 -0.13333073 0
-0.29629612 0.19850431 0.3063685 124 110 95 -0.94561023 0.14547935 0.29095876 0
-0.1367515 0.19950402 0.30999991 66 47 32 0.17817442 0.089085877 0.979958 0
-0.12265342 0.19488063 0.30913562 47 28 16 0.078088224 0.70710677 0.7027818 0
-0.11327576 0.19329941 0.309302 61 44 28 0.063571051 0.71200508 0.69929081 0
-0.10490569 0.19563726 0.30734921 65 46 31 0.1504139 0.42348355 0.89332938 0
-0.09173879 0.19506465 0.30559105 67 45 31 0.085923813 0.31506014 0.94517416 0
-0.065815024 0.19674242 0.30316707 62 42 26 0.083467849 0.38736647 0.91813958 0
-0.053951807 0.19307642 0.30364197 60 43 25 0.072143495 0.60419381 0.79356486 0
-0.045048412 0.1931746 0.30299973 60 40 21 0.1035537 0.4742873 0.8742587 0
-0.039639622 0.19397697 0.30199552 59 39 20 0.096548274 0.40387595 0.90970474 0
-0.027110778 0.1910754 0.30181763 63 40 23 0.12898052 0.50581896 0.85294271 0
0.073882639 0.19007976 0.30375046 97 62 28 -0.025961153 0.99950141 -0.017973095 0
0.083951205 0.19064331 0.30439317 108 71 35 -0.094454721 0.99551535 -0.0052474937 0
-0.29699159 0.20210065 0.30433112 107 91 79 -0.94398856 0.11914574 0.30771711 0
-0.13942346 0.20817129 0.30969781 71 54 36 0.17817181 0.089088686 0.97995818 0
-0.12665308 0.2049741 0.30789053 46 31 17 0.14853606 0.11862995 0.98176575 0
-0.11583054 0.20142163 0.30663517 55 38 20 0.089085944 0.17817442 0.979958 0
-0.10747331 0.20376255 0.3058266 66 47 30 0.044991627 0.13497731 0.98982674 0
-0.09359102 0.20543335 0.30318856 48 29 13 0.090339422 0.065961413 0.99372429 0
-0.082666464 0.20553166 0.30185848 66 47 30 0.11178344 0.14584498 0.98297185 0
-0.075749926 0.20671386 0.30126879 55 35 22 0.064582296 0.05728171 0.99626696 0
-0.064761817 0.20002224 0.30179048 39 21 11 0.087369315 0.26211038 0.96107483 0
-0.057642952 0.20031574 0.30106324 69 48 29 0.087371916 0.26211029 0.96107453 0
-0.294238 0.21635269 0.30386153 58 46 40 -0.99244523 0.0090189958 0.12235619 0
-0.12229992 0.21989724 0.30665427 7 2 0 0.090168528 -0.090168402 0.99183637 0
-0.11644767 0.21109226 0.30571777 69 48 31 0.17888579 0 0.98386985 0
-0.1081845 0.21705712 0.30422056 10 0 0 0.1781745 -0.089088522 0.9799577 0
-0.090043217 0.21813551 0.30245849 57 44 28 0.090537265 0 0.99589306 0
-0.083476737 0.21377099 0.30186149 5 1 0 0.09053459 0 0.99589336 0
-0.072475657 0.21596022 0.30047745 54 37 23 0.28069487 -0.074623302 0.95689172 0
-0.29544112 0.22943531 0.30700105 70 55 50 -0.800762 -0.10009395 0.59056026 0
-0.13615403 0.22427455 0.30896205 7 0 0 0.17817311 -0.089087218 0.97995812 0
